ply
format ascii 1.0
element vertex 1096
property float x
property float y
property float z
property uchar red
property uchar green
property uchar blue
element face 0
property list uchar int vertex_indices
end_header
0.097015776 -0.13043652 0.40441778 123 112 116
0.0908819 -0.15432608 0.40373677 104 101 118
1.5510466 0.40521023 0.783545 198 135 53
1.5740389 0.3388011 0.7922227 210 167 107
1.5672896 0.2669638 0.7925449 214 169 107
1.5624933 0.19233769 0.79351467 217 170 111
1.5561595 0.11472778 0.7941374 217 172 112
1.5492792 0.034007315 0.7947012 218 173 111
1.5382363 -0.04932879 0.7941539 218 173 111
1.5342296 -0.1374761 0.7957749 217 174 112
0.20512876 0.15521222 0.4055646 189 155 112
0.17557408 0.1469792 0.39735085 130 201 254
0.16731344 0.13264763 0.39543307 129 204 255
0.1596357 0.11813232 0.39368808 179 254 256
0.15377323 0.102636635 0.39249438 237 254 253
0.14821474 0.086701065 0.39140162 254 253 254
0.14177081 0.07107128 0.3900454 221 255 255
0.13474627 0.055700965 0.3885146 126 205 260
0.1280173 0.0399537 0.38708037 90 144 211
0.12188006 0.023440974 0.38583982 84 140 206
0.115470074 0.0068963524 0.3845221 84 141 207
0.108233325 -0.008961899 0.38294578 109 169 238
0.10179464 -0.02601056 0.38163567 103 157 225
0.09962832 -0.049605265 0.38175595 63 75 101
0.11041385 -0.09537653 0.38628596 95 90 101
0.10129096 -0.11227232 0.38420156 119 108 109
0.09367209 -0.13196385 0.38263613 32 30 36
0.083506614 -0.1467983 0.38018808 64 88 128
1.5529568 0.4338685 0.7029486 213 144 48
1.5808759 0.3703817 0.7098272 204 161 104
1.577873 0.3006612 0.70946294 213 168 109
1.5735561 0.22806044 0.7088037 215 169 112
1.5677844 0.15256435 0.70781654 216 171 111
1.559826 0.07424271 0.7063288 217 172 112
1.5525677 -0.0072405487 0.7050213 218 173 113
1.5416632 -0.0913348 0.702869 218 173 113
1.515736 -0.17474964 0.6971797 215 173 116
0.17774142 0.15578264 0.38083524 100 99 104
0.17100418 0.14121415 0.37932196 130 206 255
0.16469409 0.12637438 0.37791052 175 256 256
0.1594981 0.11081947 0.37676463 161 241 256
0.15388842 0.09518464 0.37552187 254 253 254
0.14787082 0.079531506 0.37418318 254 253 254
0.1411341 0.06416186 0.372674 158 225 262
0.13452931 0.048536103 0.37119707 118 188 245
0.1275188 0.033095617 0.36962384 91 147 213
0.12153297 0.01649068 0.3682973 88 142 210
0.11472881 0.0004466772 0.36677557 100 158 227
0.10755682 -0.015353614 0.36516607 124 189 252
0.101681985 -0.033051882 0.36387107 111 167 239
0.112260625 -0.075652756 0.3665684 40 42 48
0.10808955 -0.099513866 0.36570433 135 130 154
0.09739794 -0.113138214 0.36325628 98 102 119
0.0865294 -0.12577525 0.3607618 52 59 80
1.5907383 0.4010568 0.6311989 208 163 104
1.5857779 0.33305845 0.6288603 211 166 106
1.5821909 0.26249412 0.62672234 213 168 110
1.5782036 0.18906824 0.6244505 216 170 113
1.5725341 0.11273721 0.6218065 217 172 110
1.5641805 0.033653434 0.618608 217 172 110
1.5589176 -0.049025416 0.6159067 216 173 110
1.5419513 -0.13262005 0.61101925 217 172 112
0.22745192 0.15066344 0.37353155 191 158 113
0.17504892 0.14935039 0.3638007 129 204 257
0.16899589 0.13469118 0.36237374 163 250 257
0.16438869 0.11919327 0.36119694 211 254 254
0.15958881 0.10342678 0.35997885 253 254 254
0.15416886 0.08766156 0.35864598 254 253 254
0.14768116 0.0723135 0.35712415 254 253 254
0.13970728 0.057935517 0.35534734 166 227 259
0.13263844 0.04285432 0.35372347 95 168 214
0.12688899 0.026433662 0.35231587 92 151 216
0.12067995 0.010133623 0.35082573 90 146 212
0.114368215 -0.006349151 0.34931275 122 197 259
0.106921084 -0.021706635 0.34761304 135 238 255
0.102405086 -0.041198544 0.34636974 124 242 257
0.11564252 -0.08850374 0.34783292 79 87 128
0.103704706 -0.10000257 0.34538227 124 140 208
0.09294753 -0.11264204 0.3431264 40 48 68
0.082140855 -0.124442846 0.34087884 39 69 116
1.5908288 0.4296649 0.5538979 210 163 103
1.5853232 0.3636903 0.55011284 211 165 109
1.5830345 0.2954251 0.5466614 212 167 107
1.5804156 0.22434784 0.54303557 214 170 112
1.5727082 0.15058 0.5385917 216 170 113
0.5362058 0.17946576 0.39847773 123 97 65
0.40206158 0.16878185 0.37968096 144 120 91
0.49693823 0.124080196 0.39057237 160 127 94
0.29937488 0.14242534 0.36445624 120 97 74
0.18306327 0.15599506 0.34920824 97 91 96
0.17216419 0.14316125 0.3471308 115 189 256
0.16758893 0.1280488 0.34581152 134 217 259
0.16315198 0.11252455 0.34449217 227 255 256
0.15909487 0.096394315 0.3431968 254 253 254
0.15338542 0.08083725 0.3417023 254 253 254
0.14674312 0.065678895 0.34009883 253 254 254
0.13919549 0.05110222 0.3383986 151 221 259
0.13225615 0.035991784 0.3367568 95 158 218
0.12625086 0.019859314 0.33519548 92 151 216
0.12074974 0.002878155 0.3336639 93 152 217
0.11420549 -0.013312912 0.3320263 140 223 260
0.10854044 -0.030901095 0.33044448 209 254 254
0.10697065 -0.054811575 0.3291308 34 123 257
0.11301218 -0.092198975 0.32823598 98 120 199
0.097803384 -0.097543575 0.3259148 138 140 161
0.08988083 -0.11432336 0.32406208 57 66 95
1.5646201 0.3911602 0.47300136 160 88 42
1.5531894 0.32539463 0.4673524 156 83 37
1.5406511 0.25774264 0.46147197 153 80 35
1.5425096 0.18768135 0.45670384 145 76 36
0.35693014 0.20847803 0.3526 32 24 15
0.3426006 0.1888373 0.34994102 44 34 28
0.34059644 0.16743022 0.34825507 59 49 42
0.31740183 0.1499584 0.3449594 198 94 129
0.268584 0.14100417 0.33998194 127 114 181
0.17430614 0.15165702 0.33233726 83 144 204
0.17074789 0.1365734 0.33095828 149 235 258
0.1665215 0.12135807 0.32951048 235 255 256
0.1626865 0.10555282 0.32805604 249 256 254
0.15814704 0.08969277 0.32653493 219 255 244
0.15099502 0.07516358 0.32487503 199 243 231
0.14354447 0.06081767 0.32320136 215 207 248
0.13751218 0.045305658 0.3215719 95 154 228
0.13108124 0.029916245 0.31991553 78 135 199
0.12553252 0.013445195 0.31826162 71 123 190
0.120075665 -0.0035155248 0.31658137 86 132 206
0.11407764 -0.02026623 0.3148677 57 105 175
0.10925934 -0.038961053 0.3131222 37 76 144
0.11693097 -0.076546095 0.31115863 36 38 47
0.10723942 -0.09066302 0.30930156 127 121 138
0.09374233 -0.097796865 0.30759737 132 133 141
0.08497968 -0.112255335 0.30579895 60 69 93
1.5619131 0.41853538 0.40188977 128 71 35
1.5471863 0.3544784 0.3952234 123 67 28
1.5297252 0.28885415 0.38829216 119 61 34
1.4651755 0.22253957 0.37927744 89 51 29
0.35005718 0.2190154 0.33114514 47 39 32
0.33924198 0.19973572 0.3288651 68 61 51
0.3348957 0.17956966 0.3267789 63 54 45
0.33541217 0.15788706 0.3247582 22 19 23
0.2929733 0.14584477 0.32180446 72 90 96
0.19615087 0.15380579 0.31840417 76 78 84
0.1736218 0.14487937 0.31659743 101 163 227
0.16954795 0.12999871 0.31502086 76 129 198
0.1642943 0.11531648 0.31341237 68 118 192
0.15950382 0.10013367 0.31177658 69 117 192
0.15434222 0.08484933 0.3101153 68 113 189
0.14805534 0.07004098 0.30845067 62 109 182
0.14224398 0.054709315 0.3067571 57 104 177
0.13625531 0.039280046 0.30504674 52 100 171
0.13032457 0.02355419 0.3033109 48 93 165
0.12454174 0.0073980074 0.30154088 46 90 162
0.11899616 -0.009363354 0.299724 39 85 157
0.11349565 -0.026602102 0.29786408 37 81 153
0.10956622 -0.04646301 0.29582447 34 55 99
0.12044952 -0.08931629 0.29225358 69 65 69
0.10341645 -0.091840155 0.29128566 154 145 141
0.09275703 -0.10315235 0.28976297 71 113 174
1.5443618 0.38233358 0.32675737 56 57 56
1.5304569 0.318691 0.3193155 26 30 34
0.3592974 0.24745457 0.31343627 90 85 89
0.35211986 0.22846775 0.31122252 22 21 22
0.34522542 0.20923646 0.30897945 26 29 33
0.34552038 0.18884394 0.30658484 25 19 15
0.34667644 0.16734089 0.30405802 20 15 16
0.3123433 0.15260185 0.3024005 104 80 75
0.24618983 0.14907825 0.30212715 117 121 102
0.17534079 0.15325083 0.30276725 64 124 182
0.17198731 0.13853262 0.3010465 110 176 243
0.16742851 0.1239267 0.2993415 69 116 193
0.16255534 0.10917448 0.29761997 66 114 189
0.15721813 0.09440045 0.29589686 64 113 186
0.15170687 0.07949083 0.29415822 61 110 183
0.14621828 0.0643211 0.292389 60 105 178
0.14042746 0.049124546 0.29061726 53 101 172
0.13471338 0.03361699 0.28880885 51 96 168
0.1290596 0.017770795 0.28696057 45 90 162
0.12404371 0.0009229052 0.28499332 40 85 157
0.119272 -0.01669221 0.2829355 38 81 154
0.11390429 -0.034128338 0.28089994 36 79 152
0.11106381 -0.055606857 0.2783845 31 40 60
0.11914353 -0.094926044 0.27375144 95 87 91
0.103409305 -0.09903416 0.27330253 155 147 145
0.097921096 -0.119492345 0.27091247 72 112 159
1.5487225 0.40961048 0.2612138 74 74 69
1.6034456 0.3517695 0.2506017 21 27 34
1.1940447 0.27608404 0.25882325 32 37 47
0.3616902 0.23744714 0.29167047 72 66 55
0.35871395 0.21809365 0.28909802 35 81 131
0.36241096 0.19746482 0.28604034 27 85 141
0.49794203 0.15611625 0.27402294 18 17 16
0.48345622 0.13016267 0.27105555 24 21 21
0.4641266 0.105499946 0.26849148 21 18 19
0.18284313 0.15953828 0.28898424 74 72 80
0.17280057 0.1472957 0.287732 102 165 228
0.17063144 0.13218273 0.2857161 67 116 190
0.165807 0.11775852 0.28391862 67 111 187
0.16064195 0.10324803 0.28212473 66 113 186
0.15530837 0.08859446 0.28031856 62 109 182
0.15002 0.073669136 0.27847224 58 105 178
0.14475174 0.058459643 0.27658528 55 103 174
0.13900681 0.043349672 0.2747341 59 107 178
0.13356839 0.027716724 0.27279565 46 91 163
0.12837829 0.011513377 0.27076593 42 87 159
0.123957016 -0.0059363367 0.26852638 38 82 154
0.11900646 -0.023347061 0.26631665 35 78 153
0.11373518 -0.04088097 0.2641044 33 72 145
0.120338246 -0.0759344 0.2588939 27 27 34
0.11726305 -0.09950533 0.2557356 115 107 111
0.104864575 -0.10865737 0.2550243 145 143 152
1.6592406 0.384706 0.18036896 0 59 256
1.6117259 0.31674975 0.17357384 24 29 42
1.1796932 0.24869196 0.20086852 78 65 52
1.5942185 0.18095951 0.15312737 70 62 52
1.4752682 0.11861849 0.15357825 47 42 32
1.2846206 0.07254912 0.16302472 62 58 41
0.51175183 0.1401406 0.24252759 32 27 26
0.49514633 0.11406193 0.23977546 31 25 26
0.21973628 0.15791874 0.27130917 80 74 67
0.17205383 0.15614176 0.27525067 74 112 164
0.17226225 0.14073704 0.27273646 89 144 213
0.16823989 0.12638102 0.27076742 77 119 194
0.1638329 0.111878194 0.26880872 66 112 185
0.15866244 0.09748899 0.26693615 67 112 186
0.1535361 0.08283497 0.26501673 57 105 176
0.14867567 0.06773108 0.26300088 57 102 174
0.14327672 0.05271961 0.26104775 64 112 183
0.13758478 0.037691 0.2591178 58 106 177
0.13315982 0.02122329 0.2568424 45 88 161
0.12915573 0.0038237069 0.25437865 37 83 154
0.12420425 -0.013130254 0.2520711 35 78 151
0.11927723 -0.030608226 0.24967653 35 78 152
0.11497428 -0.04947635 0.24700136 33 53 103
0.13022986 -0.09772763 0.23783104 60 56 65
0.11498501 -0.10327925 0.23828381 159 148 145
0.111690454 -0.12761398 0.23463358 139 137 140
1.6607705 0.41306862 0.11489 85 76 64
1.6391999 0.34773389 0.10571426 82 66 59
1.6262465 0.28163928 0.095275655 104 98 79
1.5998867 0.21411055 0.08632174 84 81 58
1.5884597 0.14501473 0.07513342 37 33 25
1.4397057 0.0878943 0.0840464 30 25 21
0.5708656 0.14626634 0.20803145 24 22 20
0.51497096 0.12563613 0.21153332 35 29 28
0.5013528 0.098800704 0.20838487 35 30 28
0.18017294 0.16191472 0.26183906 84 80 76
0.17210187 0.149539 0.26062053 97 156 219
0.1697719 0.13501692 0.2582597 71 113 187
0.16630164 0.120518036 0.25605184 63 108 181
0.16161552 0.10625463 0.25404564 61 108 179
0.15658665 0.09191935 0.25207096 59 106 177
0.15168048 0.0772551 0.2500199 52 100 171
0.14690611 0.062207688 0.2478814 55 102 173
0.1415758 0.047276076 0.24583659 60 109 180
0.1375552 0.030912137 0.24335821 75 124 196
0.13356856 0.013993618 0.24077368 45 90 162
0.12904704 -0.0029324968 0.23825747 35 80 152
0.12414047 -0.019940155 0.2357765 33 76 151
0.11897998 -0.037128247 0.23329552 37 75 151
0.11495879 -0.056382492 0.23028691 29 40 61
0.1280121 -0.10200268 0.22021443 85 82 82
0.11582225 -0.11191488 0.21998495 159 147 143
0.2911482 0.28586188 0.64176315 181 128 79
0.27548027 0.26680303 0.6348869 135 81 48
0.26420587 0.2483696 0.63154733 130 77 43
0.24875778 0.230156 0.62457067 208 147 84
0.24044798 0.21195628 0.62368155 222 158 91
0.23841226 0.19273399 0.6284957 222 159 88
0.24386337 0.17111628 0.640516 221 158 88
0.24669419 0.14818743 0.65074676 220 157 89
0.246639 0.124370635 0.6588172 217 153 84
0.244794 0.09967085 0.665661 214 149 86
0.23909229 0.07531373 0.66909635 215 151 84
0.23365311 0.04980454 0.6731485 217 152 85
0.22895102 0.02265489 0.6783889 214 150 84
0.22464459 -0.006229395 0.6845581 211 149 83
0.22306046 -0.03910743 0.69441193 186 129 69
0.21890752 -0.072053246 0.70209646 164 110 55
0.20981307 -0.10190516 0.70450914 163 105 49
0.19977969 -0.13184178 0.7061493 165 105 50
0.18509448 -0.15659545 0.7020528 177 123 74
0.16932249 -0.1795022 0.6963993 173 136 87
0.15875411 -0.21060523 0.6979803 202 158 91
0.15100715 -0.24837862 0.7042429 183 142 91
0.14095233 -0.2840975 0.70783556 182 140 87
0.13050815 -0.32110327 0.7115345 191 146 85
0.11911714 -0.3580398 0.7144017 173 129 70
0.10555431 -0.3908817 0.71401983 170 127 78
0.3595608 0.28200102 0.671051 210 163 96
0.3388136 0.25977358 0.66150624 217 168 107
0.2930561 0.2384218 0.6320694 193 148 91
0.25199676 0.22027585 0.6053478 119 80 44
0.24480446 0.20179188 0.6053056 114 75 41
0.24019147 0.1825702 0.6075111 112 73 34
0.2382616 0.16209228 0.6122028 148 102 63
0.23549679 0.14078985 0.61648923 185 130 70
0.23191796 0.11872296 0.6203686 200 139 79
0.23127645 0.09435855 0.62724924 214 152 84
0.23291388 0.067235865 0.63675416 215 151 82
0.23456235 0.03794796 0.646924 214 150 83
0.23482947 0.007195936 0.6564536 214 151 85
0.23469964 -0.025661558 0.6663098 210 148 82
0.23808703 -0.06423343 0.6806579 190 131 68
0.23371048 -0.098845616 0.68771327 179 123 68
0.21876094 -0.12399461 0.6836035 193 142 88
0.20398764 -0.14917576 0.679642 183 127 81
0.19267818 -0.17903027 0.6798149 191 147 89
0.19054976 -0.22412102 0.69181013 169 125 74
0.1892241 -0.27496997 0.7061806 176 132 77
0.17916939 -0.31433815 0.71022147 179 135 77
0.16633025 -0.35019264 0.7110123 185 139 82
0.15329188 -0.38713917 0.7119779 178 133 75
0.14033547 -0.42608204 0.71361274 170 123 72
0.12732264 -0.46706676 0.7158222 170 125 73
0.4887609 0.3048771 0.7283853 188 137 78
0.47785774 0.27804556 0.727706 213 164 104
0.43120345 0.2501053 0.7016399 211 166 103
0.2811642 0.22813143 0.59971553 129 88 49
0.26884404 0.20919478 0.5959136 127 87 48
0.26110753 0.18984516 0.59551436 126 86 45
0.25289524 0.17027631 0.5948319 130 87 49
0.24542625 0.1502399 0.594808 130 87 47
0.23837584 0.12966798 0.5952276 134 92 51
0.23138729 0.10857265 0.5958311 137 93 53
0.22489618 0.086690165 0.59700185 143 97 54
0.22171326 0.062333703 0.6012086 173 120 70
0.22563829 0.032228958 0.6120539 194 137 78
0.23880878 -0.0072238906 0.63203293 209 149 82
0.24574293 -0.046505988 0.64748645 213 150 86
0.24866441 -0.08626937 0.6601857 197 146 86
0.23239386 -0.11003765 0.65483403 196 150 93
0.223075 -0.14131427 0.65647775 185 135 77
0.22251117 -0.1851732 0.66776526 187 141 83
0.23409297 -0.25056055 0.69351685 183 137 82
0.23611486 -0.30930907 0.7106313 182 137 76
0.2260828 -0.35318324 0.71512115 197 157 99
0.21121077 -0.39032462 0.7143392 187 144 85
0.19999266 -0.4367023 0.7186445 178 132 80
0.19415252 -0.49952945 0.7311984 183 134 80
0.17257373 -0.52619785 0.7228066 185 134 78
1.1537641 0.34724012 1.1177554 199 150 92
1.0455154 0.28682962 1.0609137 216 170 104
0.3388551 0.23666844 0.6102174 184 139 83
0.29809254 0.21696042 0.58810955 134 90 46
0.29060784 0.19673447 0.58789206 130 86 48
0.28252453 0.17622852 0.58734775 134 89 47
0.27439073 0.1553936 0.5868465 132 88 48
0.26560804 0.13437636 0.5859629 131 89 50
0.25569054 0.11343843 0.5843186 130 87 50
0.2467007 0.091928676 0.58341336 132 90 49
0.24031195 0.06880111 0.5845841 139 95 54
0.2345031 0.044552375 0.5863936 147 101 57
0.23010576 0.018405398 0.58956563 144 99 55
0.22801973 -0.010805999 0.59495866 147 102 56
0.23396349 -0.04874768 0.6076245 163 115 67
0.24385239 -0.09432725 0.6246382 170 124 78
0.23677903 -0.12710677 0.6275939 183 136 85
0.24629721 -0.1813678 0.64637345 190 144 87
0.27708793 -0.27034104 0.68709975 195 145 89
0.29148924 -0.34887055 0.7146881 193 144 89
0.27761248 -0.39144 0.71545774 198 157 98
0.2642333 -0.43673024 0.7171824 152 87 55
0.24535687 -0.4732152 0.71327376 157 77 52
0.22562218 -0.5080202 0.708415 176 114 71
0.20032203 -0.5287698 0.6966636 187 141 86
0.17636932 -0.5499221 0.685887 174 130 83
1.3156402 0.38678154 1.1313019 177 119 49
1.292881 0.32465822 1.1300783 216 167 105
1.0765024 0.25831154 1.0150338 214 166 103
0.33018696 0.22547284 0.57957196 160 111 60
0.3213099 0.20444708 0.57846254 157 108 62
0.3132162 0.1830478 0.57789075 153 106 57
0.3051578 0.1612628 0.5774159 146 100 54
0.2969234 0.1391048 0.5769103 74 52 33
0.2880212 0.11672138 0.57605386 132 90 53
0.277657 0.09450331 0.574299 101 68 38
0.26576868 0.072750136 0.5715499 115 77 46
0.2599429 0.047828622 0.57301575 136 92 50
0.2573089 0.020005887 0.57694393 143 99 57
0.25549504 -0.01001454 0.5817913 141 97 55
0.25610924 -0.0438936 0.5888375 131 92 54
0.26891598 -0.09116156 0.60574454 130 95 66
0.25209054 -0.11481417 0.6004466 149 95 61
0.25194302 -0.15627076 0.60853636 190 148 95
0.3275852 -0.29435578 0.6805655 185 139 84
0.3295021 -0.35662785 0.6939835 188 140 85
0.30781567 -0.38932952 0.68759185 185 140 89
0.28171223 -0.4139362 0.676988 179 128 79
0.26583183 -0.45520636 0.6757247 172 90 61
0.2473948 -0.49255463 0.67217374 175 108 69
0.19447467 -0.45130777 0.63270074 189 146 84
0.17324942 -0.47376338 0.62456125 182 138 80
1.4345976 0.3620611 1.1181537 207 161 98
1.3677908 0.29304388 1.0939405 212 164 98
0.3727518 0.23478487 0.5740211 167 121 70
0.35711992 0.21277036 0.569319 145 98 47
0.34784722 0.19042183 0.5680557 166 116 60
0.33889472 0.16772047 0.5670207 170 122 68
0.33019617 0.144601 0.56618947 124 87 51
0.32207888 0.120896295 0.5657638 138 93 49
0.31238496 0.09718826 0.5644996 123 83 49
0.30224815 0.0732839 0.56303203 136 93 54
0.292082 0.049044736 0.56160384 111 77 47
0.28785643 0.021147056 0.5639377 135 93 52
0.28602147 -0.009644001 0.5680189 132 92 50
0.28678077 -0.044243213 0.5741063 125 91 53
0.2859962 -0.080224656 0.579599 71 59 42
0.26429373 -0.09973717 0.57125556 136 105 72
0.25364888 -0.12895973 0.5703912 157 120 72
0.27183264 -0.19180118 0.59038955 180 137 86
0.2880052 -0.2603374 0.6102531 179 132 81
0.28949243 -0.31705472 0.62036085 182 138 88
0.27237216 -0.3504224 0.6167316 181 136 84
0.22463243 -0.33130547 0.58818775 189 145 91
0.20704235 -0.35862687 0.5833154 184 141 86
0.19353232 -0.3940379 0.58194286 184 142 79
0.17385451 -0.41629514 0.57512766 181 139 80
0.14694808 -0.41815963 0.5611162 164 122 69
1.44472 0.39028323 1.0335729 185 130 61
1.4658092 0.3269012 1.0519563 214 168 103
1.278986 0.25593314 0.9727907 203 154 95
0.39265987 0.22215961 0.55713135 166 115 56
0.38385332 0.19877064 0.5560519 171 119 66
0.37503254 0.17498969 0.55501753 162 112 60
0.36651525 0.1507274 0.5541907 133 90 53
0.35798877 0.12597212 0.5534247 117 79 45
0.3487427 0.100897685 0.55235994 123 84 49
0.33813086 0.07583004 0.55064684 139 93 51
0.32982644 0.049405016 0.55020714 87 64 43
0.32465956 0.020671349 0.5515601 128 89 55
0.3214719 -0.010487731 0.55417216 126 87 50
0.31766 -0.04295788 0.55666184 137 98 56
0.30190954 -0.0682506 0.5525428 110 95 68
0.27980262 -0.087920986 0.5446667 115 101 72
0.2651843 -0.113123186 0.5410723 118 94 63
0.26016265 -0.14834689 0.5433529 139 108 72
0.26113445 -0.19274436 0.5496884 143 107 67
0.26136684 -0.24012731 0.5560684 177 136 91
0.24309976 -0.2651209 0.5507169 190 149 96
0.21890078 -0.27989003 0.5412006 182 138 84
0.19632038 -0.29463816 0.53244877 181 137 82
0.17870104 -0.31632125 0.52696615 179 139 82
0.15458407 -0.32290196 0.5164052 178 132 77
0.1252208 -0.3127107 0.5011382 189 136 75
1.5217581 0.3597468 0.98619646 211 165 102
1.4927734 0.29029465 0.9811309 214 169 106
0.44386068 0.23231916 0.5488595 150 104 53
0.4238861 0.20794518 0.54298705 127 81 40
0.4165086 0.1828425 0.5424505 120 77 37
0.40866163 0.15719129 0.5417735 123 81 43
0.39911962 0.1312777 0.54041505 126 84 47
0.390577 0.10461231 0.53955024 123 82 46
0.38103312 0.077633254 0.538299 115 79 44
0.37183514 0.049943607 0.53726435 129 88 55
0.3653808 0.020309024 0.5375729 107 75 48
0.36231324 -0.012276076 0.53959537 116 80 49
0.35713837 -0.045340974 0.54078627 152 117 81
0.33109537 -0.06549682 0.53195125 151 115 72
0.30313382 -0.082236655 0.5219685 73 62 45
0.2810272 -0.1016353 0.51470095 88 71 47
0.26063555 -0.12114223 0.5081608 144 117 80
0.25583762 -0.1562684 0.5097181 140 107 69
0.25075024 -0.1932005 0.5113376 145 110 72
0.23625135 -0.21989626 0.50798786 188 145 95
0.20357902 -0.2197507 0.49432528 178 133 82
0.1635653 -0.20207623 0.4758188 182 127 64
0.1398616 -0.20493294 0.466207 196 131 61
0.12186301 -0.21498714 0.45970806 137 117 100
0.10801184 -0.23167722 0.45561442 139 121 104
0.09188086 -0.24187241 0.44990993 140 122 105
1.5363908 0.38930318 0.9041837 193 143 82
1.5569847 0.32366768 0.91634995 213 166 105
1.5514635 0.25285447 0.91940194 215 168 109
1.533445 0.17949982 0.9180968 216 171 111
1.5183836 0.10385006 0.9180295 219 172 113
1.0237486 0.0892237 0.7394402 216 171 109
0.4532408 0.13570888 0.52893233 206 162 106
0.44217318 0.10768247 0.5269144 185 143 89
0.43693066 0.07748257 0.52716726 164 125 79
0.41763443 0.051122807 0.522042 123 89 59
0.4059073 0.022082001 0.5198571 112 75 49
0.40278322 -0.011663437 0.5211324 110 78 49
0.39918828 -0.046919588 0.52234465 190 159 111
0.35478532 -0.057809666 0.5069968 166 126 83
0.30716163 -0.06163409 0.48997465 166 130 85
0.27191332 -0.06975345 0.47775355 148 115 79
0.23097071 -0.068623684 0.46280396 109 90 67
0.15576907 -0.027076801 0.4325264 111 86 63
0.12827276 -0.025224729 0.42240846 116 87 60
0.12120363 -0.044566043 0.42122242 141 99 60
0.114326745 -0.06472063 0.42016435 123 90 65
0.11818379 -0.10181873 0.42421436 103 90 77
0.119287044 -0.13840559 0.42722785 126 108 101
0.1193083 -0.17675152 0.42997402 130 114 107
0.11146922 -0.20308937 0.42900804 133 115 106
0.10100674 -0.22486743 0.42676374 135 117 106
1.5804061 0.3550148 0.83675534 211 166 104
1.5714945 0.28555906 0.83693177 213 169 105
1.5582691 0.21361475 0.83587515 217 169 108
1.542982 0.13944134 0.8342733 217 172 112
1.5285554 0.062839374 0.8330412 218 173 111
1.5146847 -0.016453227 0.83209556 219 174 112
1.5012325 -0.098702 0.8314049 219 174 112
0.78092545 0.0034500088 0.6035879 221 187 141
0.17598313 0.147443 0.4097934 47 46 53
0.16061017 0.1359012 0.4055124 130 196 251
0.15213872 0.12222236 0.40346327 108 159 213
0.14770627 0.10654754 0.40275183 153 200 213
0.14241341 0.09090387 0.40177208 180 228 211
0.13439676 0.07670165 0.39988622 181 228 211
0.12839878 0.060997307 0.3986903 110 171 256
0.123330794 0.04417156 0.39783043 88 147 208
0.12029166 0.024882978 0.39770433 83 139 203
0.11703248 0.004793673 0.3975439 84 140 206
0.11370969 -0.016324373 0.39740726 109 167 236
0.11041724 -0.03870226 0.3973334 91 143 213
0.10996468 -0.06646736 0.39836887 47 48 57
0.11883377 -0.11107634 0.40300986 114 103 103
0.11661672 -0.14235674 0.4036467 120 110 116
0.11247401 -0.17265464 0.40364447 83 83 102
0.103298865 -0.1948676 0.4017384 61 109 162
0.09118427 -0.21098652 0.39866224 69 83 103
1.5782177 0.38350093 0.75249785 193 147 88
1.5900255 0.3173174 0.7564926 211 168 105
1.5762627 0.24691488 0.75392526 213 168 106
1.5621645 0.1743544 0.7513016 215 170 108
1.5486821 0.09944204 0.7488706 217 172 112
1.5356524 0.021937398 0.74659365 218 172 112
1.5214297 -0.05812331 0.7440439 219 174 112
1.4666847 -0.13151018 0.73090583 218 174 117
0.17097275 0.15806843 0.39126265 113 106 106
0.1622718 0.14473611 0.38919815 168 238 258
0.15624353 0.13044457 0.38783938 137 215 257
0.15148748 0.11534727 0.38682145 150 241 254
0.1468892 0.099770434 0.38585117 254 253 254
0.14040348 0.0849167 0.38438192 254 253 254
0.1340535 0.069769375 0.38295195 183 246 255
0.12888484 0.05345066 0.38184446 98 161 222
0.123529315 0.036815695 0.3806931 91 147 213
0.11999305 0.01791087 0.38004497 87 143 209
0.116737336 -0.0022279513 0.37948695 100 160 227
0.113029696 -0.02293055 0.3788199 110 170 238
0.11056625 -0.046393428 0.3785141 110 166 237
0.11645627 -0.08352483 0.38056508 51 49 52
0.12028393 -0.12158025 0.3820951 140 133 140
0.1151609 -0.14815004 0.38114455 36 33 37
0.10784456 -0.17217603 0.37959 34 37 47
0.101993136 -0.20036879 0.37847385 78 83 106
1.602451 0.34782198 0.6771568 210 165 103
1.5916488 0.27917087 0.6739909 212 169 110
1.578577 0.20827626 0.67032063 215 170 110
1.5667416 0.13505556 0.6668782 216 171 111
1.5536625 0.059441224 0.6631441 217 172 114
1.5427644 -0.019112399 0.6598274 217 173 113
1.5260108 -0.099472575 0.65526205 218 175 112
0.18903267 0.16183922 0.37905207 197 161 120
0.16298693 0.15341988 0.37349284 131 203 256
0.1588423 0.13892172 0.37243447 127 196 252
0.15576097 0.12355721 0.3715871 217 255 255
0.1516699 0.10812818 0.37052765 253 254 254
0.14612132 0.0930548 0.369168 254 253 254
0.13977426 0.07819016 0.36764413 253 254 254
0.13383482 0.06281239 0.36619875 180 214 230
0.12817122 0.046903342 0.36480403 123 192 248
0.12367846 0.029541958 0.36363503 91 150 215
0.11993361 0.010768705 0.36260387 88 146 212
0.116377294 -0.009103801 0.3615976 104 176 231
0.1135042 -0.030848917 0.36070952 107 172 233
0.11179026 -0.05548364 0.36002573 111 166 236
0.1251412 -0.10422136 0.36217496 85 85 100
0.12104402 -0.13099626 0.36096445 131 130 154
0.11469715 -0.15552777 0.35931295 48 62 93
0.10707594 -0.17881179 0.35741138 21 24 40
0.097774275 -0.19943945 0.35519338 41 60 93
1.6089435 0.37684304 0.5996238 210 165 104
1.6029805 0.31025335 0.5960167 211 167 111
1.5918375 0.24112257 0.5914755 214 170 112
1.5806968 0.16971867 0.58684427 215 171 113
1.5650936 0.09626012 0.5814136 216 172 114
1.5590279 0.01934502 0.5773794 217 173 115
1.5265192 -0.056087993 0.56915134 208 166 114
0.37225688 0.12785916 0.3908249 202 161 109
0.16895814 0.16012923 0.3594114 102 96 98
0.16246772 0.14666036 0.3578319 126 201 252
0.1590634 0.13185558 0.35669565 140 230 253
0.15601358 0.11639321 0.35559028 221 254 254
0.15114047 0.10132089 0.35420716 254 253 254
0.14542614 0.0863815 0.35269403 254 253 254
0.13864449 0.071885064 0.35102686 236 255 255
0.13266939 0.056635223 0.34945944 162 227 254
0.12760995 0.04031712 0.34799686 96 158 222
0.123093285 0.02299826 0.3465817 93 152 217
0.11984099 0.0037160288 0.34529185 95 154 217
0.11718313 -0.017236957 0.34403118 125 210 254
0.11399764 -0.03876632 0.34266272 114 251 257
0.113610975 -0.06542223 0.3415405 125 182 258
0.12674122 -0.11472299 0.34169173 103 128 211
0.12004695 -0.13747829 0.3397102 120 121 144
0.11350045 -0.16146421 0.3377035 59 90 141
0.10880952 -0.19029689 0.3358025 64 66 89
1.5920429 0.3389532 0.5182152 201 151 98
1.576212 0.27228692 0.5120413 199 147 96
1.5707057 0.20368606 0.5069162 196 142 94
0.361471 0.20911157 0.369569 56 43 34
0.34572577 0.18986632 0.36651418 115 70 46
0.34732872 0.16838227 0.36528802 37 28 19
0.32674962 0.15022212 0.36175385 120 109 94
0.28700364 0.13796605 0.35642412 132 121 108
0.1661381 0.1540975 0.34371814 91 143 208
0.16260514 0.13972269 0.34237328 135 214 260
0.1593572 0.12478519 0.341024 217 255 256
0.15504426 0.109858446 0.33955416 247 254 254
0.1499226 0.09497018 0.33799472 254 253 254
0.14380503 0.08037585 0.33634117 254 253 254
0.13792162 0.065399624 0.3346892 228 254 254
0.13225913 0.049974006 0.333033 140 219 258
0.12724604 0.033637952 0.331391 97 157 222
0.12351217 0.015564466 0.32978076 93 152 217
0.12055045 -0.004138282 0.3281516 119 183 248
0.11762115 -0.0249361 0.3264544 204 253 253
0.11454547 -0.046730746 0.32467514 53 216 255
0.12431429 -0.08799721 0.32308182 48 52 71
0.12634183 -0.12216983 0.32107207 145 147 189
0.11992048 -0.14529583 0.31882453 123 119 124
0.11543513 -0.17304905 0.31649402 63 83 118
0.10742959 -0.1955173 0.3141092 53 59 80
1.5679308 0.36493647 0.4439241 156 84 40
1.5534006 0.30113187 0.43714923 149 78 29
1.541836 0.23566778 0.43042633 150 78 33
0.3571772 0.21890655 0.34805506 90 51 30
0.33634564 0.20069332 0.3449825 37 31 26
0.33325595 0.18107979 0.34299386 135 125 102
0.31828234 0.16291346 0.34032536 74 61 64
0.29436564 0.14724435 0.33727282 120 128 134
0.238152 0.14207156 0.3329674 84 88 99
0.16517574 0.14761823 0.3284896 130 206 257
0.1620072 0.13310462 0.32695782 165 237 259
0.15734088 0.1187892 0.32534182 230 250 246
0.15292309 0.10401356 0.32370105 186 231 216
0.14760794 0.0893717 0.32201117 172 216 208
0.14154683 0.07492333 0.3202879 148 188 200
0.13650008 0.059514053 0.3185468 83 139 205
0.13268869 0.042692587 0.316762 71 121 191
0.12826328 0.025773328 0.31492642 57 102 174
0.12485732 0.007226128 0.31301284 48 93 165
0.12188635 -0.01267625 0.31100616 41 89 159
0.118498854 -0.03314175 0.30891997 37 85 155
0.115924224 -0.0557759 0.30669272 33 55 91
0.13529949 -0.11163778 0.30295178 76 74 80
0.12624995 -0.13000996 0.30066893 155 145 148
0.120842785 -0.15485077 0.29804832 61 68 94
0.11724152 -0.18445872 0.2951189 44 65 97
1.5414177 0.32841575 0.36788446 92 57 47
1.5126824 0.26508144 0.35991362 74 48 52
0.35151827 0.22809952 0.32791427 44 36 30
0.33904764 0.20983876 0.32551607 35 31 24
0.33688152 0.19066091 0.32325864 80 73 60
0.33760476 0.17031597 0.32093602 61 54 45
0.3349053 0.14961413 0.3184906 22 20 20
0.30591902 0.1347665 0.3160903 107 133 139
0.1639662 0.1563353 0.315179 76 141 198
0.16448827 0.1411229 0.31344187 91 144 217
0.16023032 0.12704769 0.31172132 72 118 195
0.1552541 0.11296923 0.30998322 70 118 193
0.14999714 0.09875941 0.30822334 69 116 190
0.14444911 0.08445783 0.3064459 62 114 185
0.13923311 0.069675 0.30462107 61 108 181
0.13548456 0.053440254 0.3026643 55 104 175
0.13159095 0.03672681 0.30064905 50 98 169
0.12840918 0.01871067 0.29850096 48 93 165
0.12559181 -0.00051623 0.29622233 43 88 160
0.12249941 -0.020428848 0.29385823 39 84 156
0.119015045 -0.040902577 0.29142025 37 83 154
0.117358506 -0.06493101 0.28861713 27 36 52
0.1349084 -0.11908634 0.282808 99 93 98
0.12821825 -0.1411118 0.28011498 152 163 188
0.12219965 -0.1651692 0.27720428 73 94 136
0.11196604 -0.18228213 0.27499154 47 53 70
1.4652462 0.34952986 0.30330947 18 27 25
1.4561362 0.29118472 0.29539147 32 37 38
0.35985753 0.23658106 0.30890882 37 35 33
0.350922 0.21822512 0.3065345 21 25 28
0.34668782 0.19936422 0.3039997 16 11 12
0.35066736 0.17891057 0.30108595 20 17 19
0.3509858 0.15779923 0.2981514 106 55 44
0.33603626 0.13908395 0.29584295 96 77 37
0.220283 0.14863604 0.29939494 74 74 85
0.16605645 0.14909971 0.30050254 101 161 226
0.16212605 0.13534208 0.29866982 108 169 233
0.1579884 0.1213232 0.29680482 69 118 192
0.15295078 0.10740362 0.29497087 66 115 190
0.14746536 0.0934718 0.29314387 67 114 187
0.14236179 0.079065114 0.29124367 61 110 183
0.13807832 0.06376474 0.2892037 58 106 177
0.13466221 0.047312073 0.28698725 53 101 172
0.13176575 0.029751193 0.28460702 49 96 167
0.12858486 0.011656075 0.2821582 44 90 162
0.12603301 -0.007944091 0.27948847 39 86 157
0.123485565 -0.02860322 0.2766718 39 82 154
0.12002577 -0.04927276 0.2738712 33 72 146
0.13014223 -0.08988317 0.26804337 29 29 38
0.13424417 -0.12603232 0.2629501 119 112 117
0.13179146 -0.15493254 0.2589884 139 156 177
0.122601666 -0.17379484 0.25654876 51 59 80
1.3799969 0.3131741 0.23923124 21 32 38
0.50506324 0.24669425 0.28202522 49 50 53
0.39550605 0.2257841 0.28534776 58 64 72
0.35103497 0.20837235 0.28525278 27 69 114
0.3707407 0.1868059 0.2805579 14 23 24
0.4938085 0.14672107 0.26654115 27 24 25
0.49346057 0.1188955 0.26206106 29 24 25
0.44470623 0.10180014 0.26227942 83 78 69
0.16613449 0.15715483 0.28828365 61 123 179
0.16369681 0.14336972 0.28620282 90 146 216
0.15967882 0.12974669 0.2842449 68 114 190
0.15536183 0.115927294 0.28227353 69 116 189
0.14997879 0.102348424 0.28040633 81 129 200
0.14540826 0.08807003 0.2783762 61 111 181
0.14140604 0.073065855 0.2761939 56 105 176
0.13804108 0.05712705 0.27382135 56 104 175
0.1348015 0.04048083 0.27132675 57 104 175
0.13253613 0.022269234 0.26851925 43 91 162
0.12937543 0.0040242714 0.2657612 39 82 154
0.12715088 -0.016089275 0.26264352 36 82 153
0.1241038 -0.036349665 0.25955245 36 79 152
0.120744094 -0.057273746 0.25637314 36 55 99
0.14547554 -0.11921841 0.24483857 63 59 65
0.1355723 -0.13595627 0.24273697 159 148 145
0.13079563 -0.16122834 0.23894098 52 60 80
0.12167114 -0.17993665 0.23647296 64 97 145
1.4335325 0.34013632 0.17968407 39 32 32
0.6507414 0.26136595 0.24505213 59 44 35
0.575876 0.23346977 0.24755278 88 80 61
0.5391345 0.20842291 0.24668804 47 43 35
0.5040405 0.18506558 0.2459664 63 58 46
0.50332665 0.15902005 0.2412413 31 28 28
0.49912924 0.1324514 0.23677531 33 28 28
0.49310356 0.10540073 0.2324071 29 27 29
0.26415455 0.13816662 0.26180574 81 77 82
0.16627531 0.15070128 0.27410272 95 156 218
0.1617819 0.1376179 0.27215108 71 116 190
0.15743384 0.12421702 0.2701262 71 115 190
0.15343794 0.110349976 0.2679794 64 111 184
0.14896543 0.096388176 0.26586387 66 111 183
0.14430037 0.08221934 0.2637298 58 106 177
0.1416783 0.066301815 0.26106516 54 99 171
0.13872135 0.04997837 0.25835988 64 113 184
0.13554232 0.03317195 0.25558832 56 102 173
0.13326976 0.014820823 0.25243968 44 88 160
0.1310861 -0.004551 0.24909396 37 82 154
0.12839246 -0.0243925 0.24571377 35 78 151
0.124724485 -0.04408767 0.24245992 37 76 152
0.12234004 -0.06643848 0.23858592 30 38 58
0.14142004 -0.1213132 0.22653027 91 85 90
0.13751991 -0.14688383 0.22221778 157 149 143
0.13022949 -0.16813178 0.21904756 62 84 124
0.35164753 0.25871786 0.73036355 105 60 33
0.32314876 0.23650718 0.7130049 212 156 101
0.30790558 0.21546803 0.70698935 206 153 93
0.29837355 0.19426635 0.70609915 186 135 83
0.29080167 0.17248498 0.707155 188 140 85
0.2831155 0.1501468 0.7083081 194 144 100
0.27747557 0.12666515 0.71168494 196 149 100
0.2740735 0.101503424 0.717647 208 157 106
0.26948377 0.075425334 0.72288245 218 159 96
0.26518723 0.047855284 0.72891045 219 153 87
0.26036304 0.019018594 0.73492235 217 152 85
0.2570747 -0.012455721 0.74323833 201 142 85
0.2562552 -0.047909915 0.7551654 82 63 36
0.24495895 -0.07746721 0.755692 129 84 37
0.22879924 -0.10330644 0.75057644 149 94 44
0.20994651 -0.12608379 0.7419787 156 98 41
0.19424996 -0.15181912 0.73723704 174 112 54
0.1770274 -0.17537172 0.7303624 191 149 94
0.16351368 -0.2040454 0.7286062 202 156 98
0.15060508 -0.23445441 0.7280063 203 158 95
0.13660848 -0.26381344 0.72606623 196 145 85
0.12170845 -0.29195198 0.72288907 188 142 86
0.10387419 -0.31327504 0.7146759 197 150 77
0.08667619 -0.33502153 0.7071783 179 134 73
0.06897298 -0.35396263 0.6982312 169 125 74
0.05236809 -0.3748678 0.6909597 170 125 77
0.3478659 0.24687356 0.6998395 214 157 92
0.28751186 0.22541206 0.6572669 221 159 89
0.27301726 0.20624617 0.6514663 222 160 88
0.26591963 0.18662335 0.651858 221 160 85
0.26421773 0.16565834 0.6570852 222 159 85
0.26286528 0.14345631 0.66298866 222 158 88
0.26157758 0.11991642 0.6693674 219 155 86
0.26063517 0.09479145 0.6765289 220 155 85
0.25902408 0.06827994 0.6835814 218 154 80
0.25648257 0.04048472 0.6902784 218 153 82
0.25329196 0.011274299 0.69689155 215 152 80
0.25137964 -0.020690365 0.7054193 214 150 83
0.25169492 -0.056752473 0.71706206 191 131 72
0.24880634 -0.093154594 0.72619253 174 118 62
0.22959425 -0.11615989 0.71774673 164 106 52
0.21114373 -0.139127 0.70991164 164 110 58
0.19671158 -0.1663474 0.7067049 171 117 73
0.18374111 -0.19593096 0.7054394 190 146 94
0.17157012 -0.22762528 0.70549387 201 157 91
0.15823941 -0.2585558 0.704359 187 141 86
0.1430528 -0.28683266 0.7008689 184 140 84
0.12777902 -0.31526002 0.6973551 179 134 79
0.110587165 -0.33924633 0.6908708 176 131 72
0.09367065 -0.36324358 0.68461525 170 125 73
0.07559683 -0.3827895 0.67600805 167 122 70
0.058004785 -0.40212145 0.6677272 179 134 81
0.41263697 0.26021114 0.71452165 214 168 102
0.27258322 0.23395342 0.6166501 162 115 67
0.2460614 0.21637133 0.60159653 118 80 41
0.238878 0.19885634 0.601039 111 72 38
0.23426636 0.18067978 0.6025944 107 71 37
0.23173401 0.16146946 0.60599566 137 93 56
0.22714701 0.14181486 0.60797745 186 130 76
0.22636586 0.12018776 0.61336017 208 147 86
0.23680088 0.092910975 0.6287206 218 154 85
0.2441698 0.0638518 0.6422715 217 153 84
0.24647893 0.0344435 0.6521213 215 151 82
0.24660243 0.0038500042 0.66065764 216 152 82
0.24657412 -0.029069943 0.6697222 212 148 81
0.2518976 -0.06900647 0.68474007 193 133 73
0.24950048 -0.106093176 0.69317675 178 122 65
0.22670099 -0.12513772 0.6813206 191 141 85
0.21179298 -0.15148559 0.6774032 186 136 80
0.2012154 -0.1835651 0.6783179 195 149 92
0.19103529 -0.21769327 0.6800964 181 135 80
0.17929414 -0.25113633 0.6805141 172 126 67
0.16512789 -0.28175038 0.67833084 177 132 80
0.15013783 -0.31151178 0.675294 183 137 82
0.13394286 -0.3391147 0.670757 183 135 81
0.11714619 -0.36521754 0.66535443 170 122 73
0.09986907 -0.3896011 0.6591166 181 131 75
0.08165537 -0.41017187 0.6511237 175 131 72
0.42940184 0.24811476 0.69604915 200 151 89
0.274409 0.2243735 0.59538656 126 85 46
0.26507083 0.20624349 0.59329146 128 88 50
0.25828716 0.18771012 0.5930443 128 86 42
0.2509729 0.16883758 0.59251374 130 87 51
0.24476725 0.14932494 0.5928958 132 89 52
0.23700625 0.12966646 0.59224576 137 92 52
0.2300173 0.109315194 0.59228987 139 95 57
0.22278094 0.08848461 0.59227824 145 99 55
0.21476616 0.06742464 0.5917872 149 101 58
0.21248062 0.042596593 0.59612155 190 134 75
0.22320552 0.0077620307 0.611758 215 152 86
0.23630165 -0.032988627 0.63042724 214 150 81
0.24686196 -0.07675927 0.64807504 194 139 78
0.23553862 -0.10507942 0.6470406 200 155 95
0.22425225 -0.13425806 0.64623564 186 138 83
0.21756744 -0.16986616 0.6501151 185 135 79
0.21084869 -0.20780851 0.6545261 187 140 91
0.2013662 -0.24437279 0.65671396 186 142 86
0.18776035 -0.27631637 0.65497535 195 154 95
0.17393202 -0.30887502 0.6532303 192 147 93
0.1591666 -0.34061417 0.65064776 145 72 45
0.1423869 -0.36857605 0.64578575 190 138 85
0.12472067 -0.39418855 0.63975734 187 136 84
0.105751984 -0.41538355 0.63178533 184 135 82
0.08794981 -0.43865678 0.62510747 186 142 93
0.48862997 0.2621579 0.69697297 215 169 104
0.311865 0.23323277 0.5925722 156 109 64
0.29705665 0.21413553 0.5871738 135 92 52
0.28961778 0.19479062 0.5864197 126 85 47
0.28190655 0.17508894 0.58556753 136 90 45
0.27490288 0.15485919 0.58526254 131 89 50
0.26738852 0.13423704 0.58471787 131 88 51
0.25935972 0.11326834 0.583922 133 90 49
0.25113153 0.09188846 0.58308446 132 89 51
0.24333416 0.06981398 0.58265495 139 95 53
0.23521605 0.04728039 0.5821176 147 101 58
0.22723916 0.02402328 0.58181363 147 101 57
0.2195194 -0.0001447272 0.58185285 149 103 59
0.21312587 -0.026205242 0.5830989 140 96 56
0.24019413 -0.082644865 0.6113066 173 126 77
0.23541255 -0.116563715 0.6151354 177 130 81
0.23509859 -0.15767767 0.62319416 198 152 95
0.2389391 -0.20765372 0.6356224 191 144 85
0.23066688 -0.24654229 0.6382726 197 145 90
0.21780907 -0.28098434 0.6371711 192 150 96
0.20350489 -0.31434053 0.63494974 164 92 67
0.18775548 -0.34601018 0.6314888 163 79 48
0.17030092 -0.37469754 0.62636596 188 109 72
0.15128861 -0.39961857 0.6195158 177 133 75
0.132824 -0.424991 0.61309767 181 135 80
0.11276851 -0.44481525 0.6045738 179 133 78
0.4953752 0.24828272 0.6679589 203 156 95
0.3311592 0.22288385 0.579662 159 111 58
0.32257742 0.20270143 0.5781608 159 109 63
0.31516844 0.18207885 0.57739294 153 106 55
0.30775324 0.16098984 0.5766985 146 100 55
0.30049616 0.13935922 0.57618254 104 77 54
0.29140237 0.11764792 0.57464546 140 94 52
0.28296286 0.09531996 0.5735787 105 72 42
0.27508962 0.072241805 0.5729547 113 77 44
0.2674405 0.04840049 0.57258296 138 93 55
0.2596942 0.023850424 0.5722735 145 100 57
0.25167862 -0.0013603675 0.57192147 142 98 56
0.24596703 -0.029078007 0.57328105 131 93 53
0.2647391 -0.077833496 0.5919039 74 58 37
0.25047898 -0.103290305 0.58807546 148 93 59
0.25810724 -0.15101707 0.6002521 165 123 78
0.2718013 -0.21095031 0.6178605 189 147 94
0.26716888 -0.2554292 0.6225953 182 137 83
0.25952524 -0.29922447 0.6255213 185 138 87
0.24196745 -0.33067986 0.6208258 188 144 90
0.22287655 -0.3596669 0.6148594 174 99 69
0.20344885 -0.38763508 0.6085351 184 138 80
0.18032221 -0.4070846 0.5987209 191 149 90
0.16045982 -0.4318342 0.5916203 176 135 72
0.14183593 -0.4586888 0.58556485 181 139 80
0.11936964 -0.4733943 0.5753393 154 115 67
0.61372507 0.26624876 0.69059974 214 164 106
0.3687845 0.23256084 0.57130027 143 95 52
0.35988396 0.21138339 0.5695723 144 98 55
0.35196465 0.18979476 0.56839365 157 110 66
0.34380436 0.16777858 0.56714916 176 123 74
0.33629796 0.14517139 0.56631213 123 88 53
0.32782054 0.122206055 0.56503147 140 96 56
0.31907618 0.09879241 0.56367457 126 87 50
0.31026995 0.07485757 0.5623545 142 95 54
0.30283067 0.04975598 0.5618773 102 71 40
0.294875 0.02406868 0.5612158 128 90 52
0.2874209 -0.0027547965 0.56095606 132 92 53
0.28338757 -0.032829843 0.56284875 130 92 56
0.28809512 -0.071096525 0.57022613 74 61 40
0.27040482 -0.09429416 0.56432307 112 98 70
0.27267873 -0.1356067 0.5708694 153 118 75
0.2927452 -0.19929864 0.5893255 153 117 70
0.304313 -0.26165208 0.6033147 172 127 76
0.30131784 -0.31265265 0.6084658 175 130 80
0.28310475 -0.34617358 0.6036476 187 145 92
0.2508922 -0.35761908 0.58887494 185 141 85
0.22443935 -0.37469763 0.57774705 186 141 87
0.2011573 -0.3949081 0.56862974 181 138 77
0.18197459 -0.4217929 0.56245476 178 138 79
0.16232644 -0.44684887 0.55580574 185 144 86
0.13770524 -0.4573468 0.5447431 184 136 77
0.4531372 0.2446662 0.5809555 189 140 78
0.39742476 0.22108 0.55824983 166 116 64
0.38921535 0.19856533 0.5567578 171 118 64
0.38126326 0.17555593 0.55542934 165 114 64
0.37420705 0.15187664 0.55456823 139 92 56
0.36639342 0.12767982 0.55341756 109 75 45
0.35844573 0.10286992 0.5522664 122 82 51
0.3497733 0.07760117 0.5508347 140 96 56
0.34284207 0.050999276 0.55031425 85 61 44
0.33468026 0.02398913 0.54928124 138 96 59
0.32791615 -0.0046343477 0.5490325 126 88 50
0.32326666 -0.035712466 0.5499718 132 92 53
0.32139245 -0.07034223 0.55250233 179 162 124
0.30710718 -0.09777002 0.54876196 84 70 52
0.296728 -0.12882419 0.5471276 108 79 50
0.29448026 -0.16881563 0.5500126 131 104 67
0.2955822 -0.21543853 0.5550464 126 99 62
0.29096797 -0.25944608 0.55726033 163 119 75
0.27670518 -0.29393375 0.55421746 190 149 94
0.25637084 -0.32047015 0.5476756 175 135 83
0.23203187 -0.33968714 0.53862405 167 124 76
0.20954864 -0.3599442 0.5305065 176 132 80
0.16763301 -0.33931512 0.5096875 192 130 64
0.037402634 -0.11179788 0.4290923 193 131 57
0.020914862 -0.10855541 0.42137736 147 126 104
0.009777286 -0.115828454 0.41708726 147 125 106
0.8075881 0.27289724 0.68856686 213 167 104
0.44252062 0.23178697 0.5472756 137 93 54
0.43347546 0.20810525 0.5452516 123 80 41
0.4239756 0.18401803 0.54307467 118 76 40
0.41434544 0.15951346 0.5408736 125 81 48
0.40630618 0.13427015 0.539348 123 81 44
0.40011466 0.1079356 0.5386222 131 87 52
0.39228314 0.081139244 0.5372797 124 83 49
0.38562548 0.053115148 0.53648025 121 82 48
0.37849545 0.024238067 0.53555 116 80 47
0.3714092 -0.00574393 0.534709 115 79 49
0.36648354 -0.038112473 0.5348756 129 95 61
0.35905534 -0.07056736 0.5340609 159 113 67
0.34679058 -0.1010096 0.5312077 90 76 53
0.3246819 -0.12431315 0.5240072 90 72 51
0.2863196 -0.13201296 0.50938016 144 121 86
0.2764988 -0.16360335 0.5075656 144 112 70
0.26775062 -0.19762963 0.50633276 142 105 65
0.25695345 -0.23080581 0.50423646 131 86 54
0.23702955 -0.25290427 0.49781904 169 118 63
0.09065238 -0.08332686 0.42904347 198 128 53
0.06871705 -0.079557166 0.4201473 179 126 78
0.056626994 -0.089643106 0.4160366 136 116 102
0.04514832 -0.09982977 0.41217357 139 118 104
0.03330925 -0.10812364 0.40804505 139 121 106
0.021388568 -0.11475475 0.40377602 143 122 106
1.5476911 0.27350244 0.894322 214 169 106
1.5353278 0.20491634 0.8924289 216 171 108
1.5204793 0.13403612 0.8897646 218 173 109
1.5089047 0.060421817 0.888312 220 173 112
1.5067494 -0.01751894 0.89022523 218 173 113
1.2603829 -0.050376307 0.807154 210 168 115
0.88538533 -0.028614884 0.6782703 187 146 95
0.43678918 0.054460075 0.52215195 161 122 85
0.42906016 0.024049107 0.52054465 111 76 49
0.4170122 -0.005555255 0.51743406 112 77 50
0.40543306 -0.035989594 0.51451194 168 134 96
0.3907333 -0.06534279 0.51048666 188 155 105
0.36412397 -0.087204345 0.50213695 158 116 71
0.31792262 -0.09296311 0.48654485 171 127 79
0.18804657 -0.024154931 0.43982437 133 114 90
0.16529517 -0.032279957 0.432326 132 106 82
0.117198125 -0.011954526 0.41519928 117 92 72
0.10510484 -0.024266196 0.41148534 92 74 67
0.09852299 -0.042832408 0.40986738 19 15 18
0.088734 -0.05759616 0.40702423 111 96 86
0.078576624 -0.0716248 0.40403017 120 106 100
0.06831449 -0.08516492 0.40098375 128 112 107
0.056600202 -0.09558266 0.3973349 130 114 109
0.044366885 -0.10389282 0.39343706 136 119 110
0.03330367 -0.11344717 0.38998136 103 96 106
0.021201594 -0.11923451 0.3860426 99 99 123
1.5679454 0.30433372 0.816756 214 167 106
1.5570744 0.23730414 0.8138518 215 170 110
1.5465364 0.16784783 0.8110537 216 171 109
1.5389491 0.095528945 0.80912447 218 173 113
1.5359015 0.019533586 0.8085292 218 173 112
1.5287863 -0.059551954 0.80676305 219 175 111
0.755959 0.030300595 0.5817203 226 199 163
0.17152184 0.14652053 0.41135085 51 51 55
0.16248181 0.13311784 0.40877375 85 99 118
0.16378208 0.11571249 0.4092184 90 116 142
0.15531653 0.10161087 0.40681103 153 183 176
0.14390361 0.089088105 0.4035406 160 200 184
0.13452731 0.07577999 0.40086544 176 218 199
0.12753208 0.06101873 0.39888805 115 172 255
0.12242805 0.04459945 0.3974669 90 151 213
0.11634378 0.0284488 0.39575973 87 145 211
0.113941915 0.008340561 0.39513832 86 142 208
0.11148786 -0.012981164 0.3945064 109 172 238
0.10712714 -0.033483762 0.39331698 83 137 204
0.09804856 -0.049010076 0.39073682 30 31 33
0.08847128 -0.063841365 0.38800898 111 103 109
0.07779043 -0.076809265 0.38495314 105 109 149
0.06688085 -0.088880286 0.38182738 32 33 36
0.05405628 -0.09663088 0.37812832 48 56 69
0.04189592 -0.10426159 0.37462193 45 54 69
0.030694813 -0.11263289 0.37139726 62 111 167
1.5770223 0.2687436 0.737218 213 168 107
1.565941 0.20092349 0.73282075 214 170 110
1.5587589 0.13045026 0.7292972 216 171 109
1.5523441 0.056939326 0.7258818 218 172 115
1.5469551 -0.019985715 0.7226273 218 174 114
1.0725421 -0.007895472 0.6084225 219 180 124
0.1707158 0.1554268 0.3948916 63 78 110
0.15829526 0.14356478 0.39159226 168 239 258
0.15551774 0.12874235 0.39054543 112 199 256
0.15260373 0.11337159 0.38945165 166 254 255
0.1445144 0.09988444 0.38715652 254 253 254
0.13736886 0.085882306 0.3850761 254 253 254
0.13202296 0.07061652 0.38339806 182 246 252
0.1302404 0.05239522 0.38250497 103 170 228
0.12148674 0.0386454 0.38004282 94 154 218
0.11532191 0.022678899 0.37814927 89 149 214
0.118752785 -0.0031401147 0.37832165 105 167 231
0.11385121 -0.022379598 0.37664986 111 175 241
0.10673955 -0.039860368 0.37448934 116 178 246
0.09782287 -0.055415772 0.37194198 61 57 61
0.08844472 -0.07034137 0.36929923 147 142 153
0.07602862 -0.08030054 0.36604935 12 16 25
0.063852526 -0.089605324 0.36287403 14 14 19
0.05215356 -0.09867863 0.3598197 34 35 46
0.04089645 -0.10753855 0.3568775 44 44 51
0.031228436 -0.118987925 0.35425308 14 12 14
1.5992706 0.29938397 0.6633951 213 168 108
1.5872593 0.232982 0.65750337 213 169 111
1.5781257 0.16425446 0.65204364 215 171 112
1.5693157 0.0928724 0.6465039 216 172 113
1.5640113 0.018198103 0.6414657 217 173 115
1.5580223 -0.059768308 0.6361182 218 174 118
0.18838255 0.159688 0.38284802 152 132 111
0.16135435 0.15120958 0.37716192 136 210 261
0.15926662 0.13663706 0.37597504 125 193 251
0.1594475 0.120548055 0.37514567 223 255 255
0.1502924 0.107668936 0.37268206 253 254 254
0.14039332 0.09533134 0.3701036 254 253 254
0.1362004 0.07993924 0.36846524 254 253 254
0.13737383 0.060469724 0.36764637 171 190 232
0.13393404 0.042952385 0.36603963 102 172 228
0.120209776 0.033078387 0.3628532 94 157 220
0.11723884 0.014340958 0.36127162 93 152 217
0.12069804 -0.011938327 0.3605293 113 182 240
0.113379285 -0.02868334 0.35821337 109 171 239
0.10468965 -0.044095892 0.3557037 115 173 236
0.09842251 -0.06285635 0.35348302 96 98 116
0.08632158 -0.07364107 0.3505618 151 151 172
0.07332616 -0.08206331 0.3475944 38 44 61
0.061011523 -0.09039451 0.34476367 25 28 40
0.04929063 -0.09862502 0.3420532 95 98 121
0.03822383 -0.10703209 0.33945987 50 51 63
1.6085837 0.26416427 0.584364 213 169 111
1.6012995 0.19693138 0.577834 214 170 114
