ply
format ascii 1.0
element vertex 1097
property float x
property float y
property float z
property uchar red
property uchar green
property uchar blue
element face 0
property list uchar int vertex_indices
end_header
-0.49897888 -0.00043661785 -0.2606611 201 171 128
-0.5469646 -0.076021425 -0.3165466 169 136 96
-0.553991 -0.1320959 -0.3337663 120 89 55
-0.5047539 -0.14542902 -0.29467228 118 90 59
-0.46940917 -0.16442186 -0.26850042 119 84 51
-0.44509172 -0.18986677 -0.25297922 99 72 38
-0.41827515 -0.20970938 -0.23421292 161 104 67
-0.39156157 -0.22613624 -0.2148483 130 99 58
-0.36587998 -0.24017863 -0.19588032 158 124 80
-0.34117615 -0.2518506 -0.17726597 196 155 98
-0.32055658 -0.26620197 -0.1626545 138 102 65
-2.4879227 1.2745724 -1.5260118 62 59 49
-2.4860148 1.1558423 -1.5458764 49 51 45
-2.468129 1.0290072 -1.5548267 46 53 45
-2.4540584 0.9011373 -1.5669172 42 47 45
-2.4350352 0.7698587 -1.5757862 18 21 23
-1.3929375 0.49317852 -0.8186898 12 8 4
-1.4960552 0.42413118 -0.9109385 22 14 4
-2.11394 0.35573068 -1.4016218 36 30 17
-2.160951 0.2291255 -1.4607766 24 20 15
-1.3143224 0.17295836 -0.8153824 13 13 18
-1.2671891 0.09615964 -0.79269475 19 19 25
-1.2456273 0.016951814 -0.79023826 11 12 14
-1.2160025 -0.060080353 -0.7811481 23 18 13
-0.7388067 0.022129651 -0.39690903 25 18 7
-0.55713236 0.044097062 -0.25230166 227 203 160
-0.5071025 0.025263827 -0.21695197 210 178 134
-0.5049136 -0.015144432 -0.22252062 198 165 120
-0.58304447 -0.109742366 -0.30001613 142 94 49
-0.5542657 -0.13979575 -0.28313667 155 105 57
-0.52031505 -0.16263399 -0.260956 123 97 67
-0.4872348 -0.18222632 -0.23886582 141 109 74
-0.460683 -0.20430924 -0.22227782 145 115 80
-0.43248424 -0.22143668 -0.20352396 166 134 92
-0.4046493 -0.23533851 -0.18447201 128 96 60
-0.37873104 -0.24794196 -0.16667064 148 115 69
-0.35650763 -0.26218903 -0.15202537 131 100 62
-0.14164987 1.5651358 -2.073561 120 75 23
-0.14409676 1.6894512 -2.5292132 57 48 36
-0.11961058 1.6396265 -2.6950727 59 48 35
-0.061238494 1.285899 -2.160735 85 54 29
-0.020650212 1.0400068 -1.7894578 147 78 42
0.004824497 0.9371716 -1.7602049 155 90 49
0.017650124 1.412497 -3.831264 172 162 142
0.06905882 1.2590297 -3.9861395 95 80 58
0.114751585 0.99685425 -3.626102 106 92 72
0.12176226 0.6391032 -2.3143823 107 102 80
0.1510595 0.513243 -2.2506895 29 35 44
0.18144125 0.39465496 -2.2318497 42 51 51
0.2086966 0.27756676 -2.1725967 143 128 94
0.22955444 0.16889623 -2.051803 77 73 54
0.21606173 0.10504772 -1.5991123 27 22 21
0.2352377 0.02258594 -1.5570961 26 21 20
0.20824407 0.018179074 -1.1394634 90 82 76
0.22077526 -0.03908268 -1.0986544 85 80 73
0.23511654 -0.09831276 -1.076892 130 122 108
0.25037226 -0.15874861 -1.0639155 172 170 172
0.26161495 -0.20965222 -1.0291644 199 202 244
0.2718184 -0.2569414 -0.99330753 95 134 160
0.28450996 -0.30928573 -0.97433406 101 138 162
0.29661408 -0.35962158 -0.95460165 202 239 258
0.31161147 -0.41705108 -0.9496901 97 129 141
0.3226629 -0.4638121 -0.9284956 73 112 177
-0.2377685 1.5367411 -2.1212015 103 47 4
-0.26061442 1.6622962 -2.6115339 54 48 39
-0.24349904 1.6129513 -2.8031497 55 48 36
-0.22661054 1.5695007 -3.0577335 36 33 29
-0.21375717 1.553536 -3.4652882 47 44 33
-0.1976214 1.5351493 -3.997615 44 38 33
-0.09440585 1.0530831 -2.847092 111 85 55
-0.020193959 0.68180233 -1.7114158 176 109 53
0.004362369 0.5894291 -1.7166513 170 103 54
0.026584331 0.5401552 -2.1503618 76 59 63
0.059257302 0.4433027 -2.4829855 0 73 256
0.08909082 0.3099239 -2.2249136 50 45 52
0.11809708 0.1936224 -2.141229 95 71 44
0.14351104 0.088075645 -2.0223024 48 37 24
0.14811836 0.03650264 -1.5952642 31 25 21
0.14324217 0.02242585 -1.1889809 74 66 64
0.15994106 -0.042662244 -1.1641394 67 64 61
0.17615604 -0.10585766 -1.1400946 66 62 58
0.19216672 -0.16803494 -1.1191328 58 54 50
0.2036817 -0.21583107 -1.0655795 61 62 61
0.21512318 -0.2626109 -1.0212594 70 62 54
0.22417264 -0.30103958 -0.96834725 90 84 75
0.23858169 -0.3564475 -0.95634526 147 183 206
0.25496846 -0.41832623 -0.9568794 106 132 121
0.26902318 -0.47240958 -0.94469833 96 122 139
0.28272998 -0.52521616 -0.9320483 96 121 144
-0.35167116 1.5543594 -2.054432 153 111 63
-0.39686093 1.6790019 -2.5188415 52 45 33
-0.39010385 1.6339871 -2.706458 53 49 41
-0.3809816 1.5780762 -2.9123752 49 46 34
-0.38406307 1.5538564 -3.262908 38 38 33
-0.38992894 1.5291563 -3.7215743 23 22 25
-0.43418455 1.5972311 -4.7025404 78 68 48
-0.37693098 1.3724836 -4.765443 88 76 57
-0.17569327 0.8051 -2.817496 56 54 60
-0.080659285 0.5418868 -1.8514673 70 67 57
-0.051303964 0.4355417 -1.7970974 61 47 39
-0.02298686 0.3338885 -1.7355763 145 82 31
0.0030058634 0.23652402 -1.7186282 141 74 35
0.025928494 0.106279194 -2.136184 225 205 112
0.055858918 0.010714546 -1.9553839 17 18 14
0.076821186 -0.02800418 -1.5538272 59 41 27
0.10158803 -0.12552129 -1.5839154 26 22 20
0.1248815 -0.21212547 -1.5623983 18 17 16
0.12785673 -0.18703938 -1.2073752 21 21 16
0.14245333 -0.23580524 -1.140258 42 41 34
0.15657616 -0.28423145 -1.0874307 70 70 65
0.15731972 -0.26927242 -0.91402227 97 85 66
0.16848849 -0.30766714 -0.8731991 140 116 88
0.16267602 -0.26844338 -0.70692194 98 87 72
0.1489886 -0.19672284 -0.51655823 127 108 82
0.16447978 -0.25905883 -0.548445 108 95 83
-0.45804024 1.5203485 -2.0946367 91 39 6
-0.53434724 1.6583462 -2.620606 52 49 39
-0.5365427 1.6069148 -2.8229034 53 48 37
-0.54514575 1.5604779 -3.0916436 34 34 29
-0.56892025 1.5321957 -3.4963121 19 21 22
-0.59891945 1.4949908 -4.0120616 67 58 43
-0.65051144 1.4656118 -4.7821307 81 69 52
-0.59467286 1.2304806 -4.850443 101 94 79
-0.20130578 0.5845135 -1.9180324 82 80 72
-0.16830073 0.47247395 -1.8673958 49 46 43
-0.1393766 0.36613208 -1.8505697 45 67 152
-0.110171035 0.26108244 -1.8257202 80 74 59
-0.11425578 0.121793196 -2.3493943 81 72 48
-0.08475001 -0.021838827 -2.4509845 73 61 44
-0.023299605 -0.030202094 -1.6802393 110 52 21
0.002288977 -0.13000067 -1.6846786 114 60 27
0.03194563 -0.07584167 -1.116107 122 102 76
0.050622426 -0.16179128 -1.16363 83 70 49
0.07039116 -0.24779983 -1.1971539 105 96 76
0.08614939 -0.2744985 -1.0824562 80 64 47
0.09465224 -0.24693336 -0.87877595 112 94 74
0.10957727 -0.30171907 -0.86979884 154 103 58
0.09847253 -0.15422246 -0.5158972 100 89 71
0.105114095 -0.16657192 -0.4712617 133 114 83
0.11677773 -0.21614273 -0.48707289 136 114 82
0.12733673 -0.25740921 -0.48919198 135 113 81
-0.5742245 1.5415785 -2.0316749 138 100 68
-0.6226031 1.5796678 -2.3308942 55 43 25
-0.6877425 1.6328429 -2.7300065 52 49 35
-0.7029006 1.5775907 -2.95782 47 45 37
-0.74180853 1.5466973 -3.3212318 39 35 28
-0.78743404 1.5025868 -3.763116 28 24 20
-0.937319 1.5639198 -4.8032317 75 62 46
-0.89071333 1.3312851 -4.9059515 98 90 74
-0.45232677 0.73728675 -2.6910987 86 85 75
-0.28814572 0.5068019 -1.877623 79 75 68
-0.26010895 0.39847463 -1.876324 67 65 57
-0.22735383 0.289798 -1.8391268 40 52 54
-0.24219964 0.1628345 -2.2076087 46 37 26
-0.2948524 -0.051816367 -3.0442863 52 50 31
-0.15587345 -0.05487103 -1.9724699 143 82 34
-0.1056539 -0.11421483 -1.7013829 144 75 31
-0.032852262 -0.019680424 -0.948108 225 200 163
-0.01388611 -0.06511169 -0.8916599 174 156 129
-0.0018923482 -0.16359155 -0.9951401 135 114 88
0.015398175 -0.22527032 -0.98410755 105 76 53
0.033225313 -0.23527811 -0.8658107 148 124 91
0.048643757 -0.29310727 -0.8616167 94 73 51
0.056816824 -0.14862017 -0.5099224 104 92 73
0.06515281 -0.14793278 -0.4438974 138 117 83
0.07622386 -0.20447104 -0.47084555 139 115 82
0.08775152 -0.25994855 -0.49213552 137 113 82
-0.6929679 1.5061252 -2.0725057 95 53 18
-0.8397957 1.6649263 -2.653546 53 48 37
-0.8637716 1.6082067 -2.8633482 53 48 36
-0.90428025 1.5592293 -3.152673 30 30 25
-0.9699825 1.5200511 -3.5659575 15 18 16
-1.2028204 1.6292024 -4.6857467 69 59 40
-1.2011063 1.43451 -4.9470983 84 74 54
-1.1714635 1.1962372 -5.116522 105 98 81
-1.1101539 0.92439294 -5.15969 61 60 58
-0.8276956 0.57537484 -4.1024404 41 43 41
-0.58086014 0.33567262 -3.087734 196 185 150
-0.5539874 0.15674658 -3.1897671 33 22 8
-0.3920267 0.0426765 -2.4638867 66 62 45
-0.30581406 -0.05160558 -2.1241632 22 16 7
-0.21982674 -0.0973127 -1.7181283 143 72 21
-0.10550378 -0.017114973 -0.9822834 190 161 116
-0.07166658 -0.03406257 -0.82105863 203 186 155
-0.052162793 -0.07320055 -0.7689655 147 131 106
-0.040103097 -0.13941073 -0.7951684 110 96 79
-0.028288 -0.2164764 -0.8378009 83 66 42
-0.013265605 -0.27812365 -0.8414795 111 93 63
0.014607267 -0.13519482 -0.49052534 112 94 71
0.026448593 -0.13571315 -0.42657894 147 121 90
0.035876468 -0.19028111 -0.45096654 144 119 84
0.046070006 -0.24974489 -0.47797996 142 119 82
0.05705186 -0.310927 -0.50307775 142 113 76
-0.8184235 1.5392154 -2.0280054 72 25 0
-0.8521677 1.5091965 -2.2004066 67 42 25
-1.0264817 1.6447287 -2.7855194 52 47 38
-1.0690618 1.5842211 -3.0268495 48 44 36
-1.1481957 1.5432546 -3.4002128 49 43 36
-1.2271807 1.4718618 -3.8049371 32 27 25
-1.4897543 1.512159 -4.8585477 78 68 51
-1.4969829 1.293336 -5.1187363 77 70 60
-1.4451644 1.020412 -5.189334 79 78 71
-1.3010815 0.71057284 -4.9136276 65 57 52
-1.0260313 0.41306707 -4.0783067 67 62 47
-1.0468762 0.17308208 -4.417574 50 44 37
-0.96130073 -0.069465436 -4.315341 42 37 23
-0.4509731 -0.025429804 -2.1389706 15 12 7
-0.33962205 -0.07824692 -1.7297162 119 61 21
-0.19693033 -0.029527877 -1.0829166 193 161 115
-0.12907803 -0.013453923 -0.7828082 189 178 159
-0.10400766 -0.045350812 -0.7116943 222 196 156
-0.089504465 -0.09545796 -0.7038291 141 123 103
-0.08418981 -0.1790805 -0.76954633 113 92 71
-0.0675394 -0.2253998 -0.748737 101 84 67
-0.02795571 -0.12687619 -0.47995308 122 107 81
-0.012665713 -0.12979126 -0.4191976 156 131 98
-0.004206311 -0.17979823 -0.43645355 154 129 94
0.003978248 -0.24394317 -0.4697179 143 121 83
0.009535546 -0.3913449 -0.6014641 85 55 34
-0.93551725 1.4815704 -2.03088 126 83 46
-1.2021503 1.6975045 -2.7440624 50 47 37
-1.24387 1.6246692 -2.9445772 52 46 33
-1.3210995 1.5682838 -3.2503383 37 33 29
-1.416868 1.5009241 -3.6273606 18 21 21
-1.6808895 1.5196518 -4.4962664 72 63 45
-1.7732558 1.3575929 -4.9408712 64 58 51
-1.728711 1.090345 -5.0145264 52 56 53
-1.6488001 0.8036988 -4.985876 58 57 56
-1.4981455 0.50869286 -4.7271924 18 37 41
-1.4083261 0.23829812 -4.651793 48 41 30
-1.3012916 -0.020865053 -4.5093517 41 37 22
-0.7501583 -0.063710526 -2.6986783 26 31 22
-0.46781674 -0.059420317 -1.7491993 140 73 23
-0.3066516 -0.041993484 -1.1947293 179 144 106
-0.19187237 -0.002586934 -0.7773303 122 103 74
-0.15926538 -0.03092398 -0.69172376 211 183 154
-0.13960063 -0.07130578 -0.659522 153 130 104
-0.12523721 -0.11939104 -0.6515054 94 77 51
-0.10651627 -0.15317824 -0.61696565 96 76 57
-0.06991788 -0.11422347 -0.46186477 121 106 82
-0.05385781 -0.12952106 -0.42081878 156 131 96
-0.04604493 -0.17885308 -0.43578768 155 130 94
-0.038612287 -0.23593558 -0.4584945 155 130 94
-0.048179723 -0.44195628 -0.66237175 103 77 44
-0.032157198 -0.46897298 -0.63122535 80 50 27
-1.0791245 1.5320377 -2.0155847 76 25 1
-1.0798342 1.4430197 -2.0783672 74 37 18
-1.4278915 1.6750628 -2.8866813 49 44 33
-1.4940385 1.5984567 -3.1227553 46 40 33
-1.6091579 1.5373216 -3.4842958 47 43 37
-1.7157949 1.4369688 -3.8490646 55 50 39
-1.8532174 1.3178961 -4.3121367 69 66 56
-1.9515738 1.1358184 -4.709732 72 70 64
-1.882727 0.86246204 -4.705228 57 59 55
-1.877263 0.5982225 -4.8705587 35 38 47
-1.5879564 0.31107455 -4.2630854 20 81 248
-1.2242959 0.1038877 -3.3944488 5 8 6
-1.1460857 -0.09199848 -3.3110127 221 220 203
-0.60756236 -0.041100547 -1.7803394 119 58 18
-0.40477842 -0.029999208 -1.2094648 184 148 105
-0.26815206 -0.0023524528 -0.8110596 124 103 75
-0.21422075 -0.01612995 -0.67066157 130 106 76
-0.18906677 -0.051270187 -0.6247944 107 79 55
-0.16922814 -0.088787325 -0.59531593 125 104 78
-0.14771241 -0.11779626 -0.55536664 112 68 33
-0.117542714 -0.11716701 -0.47113174 120 105 77
-0.09810603 -0.13239597 -0.4275441 156 130 94
-0.0908477 -0.1822192 -0.4414176 155 130 93
-0.08420782 -0.23852822 -0.46143967 155 129 97
-0.1108948 -0.46767408 -0.69210625 105 78 47
-0.0910686 -0.49014857 -0.6523862 96 66 35
-1.1979556 1.4630234 -2.0011008 122 81 46
-1.6228586 1.7344207 -2.847269 51 45 36
-1.6809485 1.6429579 -3.036515 52 45 35
-1.764802 1.5513966 -3.28654 49 44 33
-1.7965804 1.4039518 -3.4458046 33 29 31
-1.8125023 1.2320162 -3.5817094 63 56 48
-1.8143177 1.0396837 -3.6960378 90 87 75
-1.7983209 0.8291263 -3.7788124 101 97 81
-1.7653145 0.60549027 -3.8289802 130 133 118
-1.744033 0.37550128 -3.9104176 111 103 97
-1.7307011 0.13396555 -4.0171986 53 47 29
-1.6203004 -0.09901825 -3.8903036 50 44 31
-0.8679841 -0.06461342 -2.097477 117 59 18
-0.5447018 -0.037144452 -1.319813 191 155 110
-0.2531677 0.07297293 -0.5696864 77 57 42
-0.21486768 0.050138745 -0.49248216 141 69 31
-0.23272808 -0.02708746 -0.5787651 96 78 54
-0.21074161 -0.06214323 -0.5470033 127 105 77
-0.1929142 -0.099235654 -0.5262094 145 121 91
-0.16649677 -0.11608753 -0.47358838 117 100 76
-0.14411038 -0.13272244 -0.4303439 153 128 92
-0.13744015 -0.18306683 -0.44342905 155 130 95
-0.13374005 -0.24579258 -0.4705989 125 98 66
-0.16277073 -0.43164372 -0.64536256 97 58 23
-0.15069734 -0.4926412 -0.65180844 82 55 29
-0.13244912 -0.52686375 -0.62838066 112 79 58
-1.3601074 1.5237805 -2.0012462 73 24 0
-1.318985 1.3899355 -1.982792 80 36 14
-1.2979583 1.2718947 -1.9975214 91 40 15
-1.2596958 1.1406435 -1.9836221 92 45 20
-1.5069519 1.1722133 -2.4712653 71 52 40
-1.9152099 1.2314066 -3.2729974 58 54 49
-1.9228508 1.0520923 -3.3759003 47 50 48
-1.903436 0.8529427 -3.433423 46 49 49
-1.8888168 0.6471955 -3.503917 26 25 25
-1.8733463 0.4321586 -3.5772042 44 37 35
-1.8485323 0.20764141 -3.636102 73 61 40
-1.816665 -0.024199411 -3.684218 90 80 52
-1.7648201 -0.25744984 -3.6923773 51 43 15
-0.7744309 -0.07230636 -1.5873086 189 152 119
-0.3238184 0.07366107 -0.59946007 207 192 163
-0.26494172 0.058502156 -0.48706505 218 106 12
-0.23182571 0.035252087 -0.43101993 182 125 49
-0.25162756 -0.039943807 -0.50793904 95 77 60
-0.23550816 -0.07945857 -0.49439597 133 111 82
-0.21423915 -0.10893939 -0.4654882 122 102 79
-0.19606432 -0.13931973 -0.44331348 154 126 91
-0.18958007 -0.19048046 -0.4550461 153 127 93
-0.18705596 -0.25385717 -0.4807867 155 130 94
-0.25409234 -0.5131224 -0.7434751 103 78 49
-0.22387895 -0.52895963 -0.68972373 75 53 29
-0.1960995 -0.5414432 -0.6392903 104 72 42
-1.4918646 1.4541407 -1.9903674 124 82 45
-1.8940376 1.6238328 -2.6347456 53 46 35
-1.8494831 1.4552956 -2.6262429 33 28 27
-1.8234441 1.2967453 -2.6464934 39 42 44
-1.8233061 1.1471089 -2.7090895 41 46 47
-1.3583262 0.8162704 -2.020626 88 66 42
-1.2612884 0.6645718 -1.911661 139 76 31
-1.2345636 0.5378632 -1.9173188 114 61 22
-1.2043341 0.40944335 -1.9174588 106 59 26
-1.9083916 0.27227378 -3.2278929 54 40 21
-1.9492029 0.052872635 -3.3926544 21 15 8
-1.9066685 -0.16902575 -3.4101565 43 33 16
-0.96344507 -0.06934013 -1.6898828 124 60 21
-0.67363656 -0.058693312 -1.1697146 164 133 97
-0.34417102 0.04964914 -0.53795075 185 98 77
-0.27179125 0.04864401 -0.40957746 198 152 93
-0.2646625 0.0052746395 -0.41510582 156 116 66
-0.2777054 -0.061756678 -0.4664656 144 120 91
-0.26182687 -0.099985786 -0.45426548 120 99 74
-0.24991421 -0.14243537 -0.4508949 145 118 82
-0.24565646 -0.19777714 -0.46655998 152 125 87
-0.25265408 -0.2783553 -0.5128517 122 96 65
-0.32177028 -0.5051485 -0.7310846 55 37 16
-0.29260236 -0.5336269 -0.69114196 75 53 31
-0.26041773 -0.5457231 -0.63895124 155 125 84
-0.23352587 -0.5630949 -0.5983944 112 83 48
-1.6566508 1.509402 -1.9757667 92 39 4
-1.697928 1.4265201 -2.0709784 53 29 13
-2.0236454 1.4995096 -2.5565808 39 36 36
-1.9974504 1.3407062 -2.5734222 30 35 38
-1.9959866 1.1901237 -2.6261559 39 46 47
-2.0124464 1.0393981 -2.7071311 253 254 253
-2.0673785 0.88953954 -2.8482983 60 57 47
-2.1047397 0.71896994 -2.9693995 42 41 37
-2.1072664 0.5291904 -3.042735 27 31 29
-2.0938954 0.3290747 -3.094845 14 17 12
-2.042332 0.12431777 -3.0885832 22 17 8
-1.3301556 0.04079722 -1.9990184 101 54 14
-1.1615857 -0.058879707 -1.770327 117 59 23
-0.88516974 -0.0842454 -1.3448585 193 156 106
-0.44933212 0.03392173 -0.6161974 117 89 62
-0.33057472 0.04894912 -0.4239269 162 118 74
-0.3170184 0.008961443 -0.41722077 206 184 154
-0.31448412 -0.040659826 -0.43137085 168 142 109
-0.31054056 -0.09135426 -0.4436966 151 125 92
-0.30848858 -0.14684649 -0.46075094 149 121 90
-0.3039435 -0.20209467 -0.47379503 148 120 88
-0.28610635 -0.23848586 -0.45904163 172 145 113
-0.3302823 -0.3859918 -0.5824316 73 53 34
-0.35996583 -0.52842015 -0.6811725 97 71 50
-0.32635075 -0.54682255 -0.6350295 188 154 102
-0.2943594 -0.5601061 -0.58956933 174 145 97
-1.783786 1.4270835 -1.9450164 130 91 69
-2.0215955 1.4455036 -2.2724926 50 32 16
-2.150238 1.3744379 -2.4756057 38 36 31
-2.144381 1.2231491 -2.5158734 41 46 47
-2.2050123 1.0900174 -2.6435308 43 48 49
-2.2490783 0.93664896 -2.754451 56 56 49
-2.3414266 0.7790634 -2.9344082 34 34 27
-2.374281 0.5913648 -3.0406115 39 39 32
-2.3323011 0.38640866 -3.0474365 44 43 31
-2.2926197 0.1791947 -3.0582075 38 39 27
-2.2235901 -0.026596317 -3.0273795 14 12 4
-1.3780594 -0.04463309 -1.8478312 107 51 16
-1.1246779 -0.102948435 -1.5113088 189 153 107
-0.54946804 0.029414508 -0.6625227 75 62 37
-0.39304262 0.05040014 -0.4365093 146 99 52
-0.37896535 0.00832508 -0.43025714 157 128 98
-0.3636601 -0.032125797 -0.42176306 195 170 136
-0.34593615 -0.069291525 -0.4088256 153 132 104
-0.34447166 -0.12219738 -0.4237256 157 133 104
-0.34370726 -0.1788673 -0.44081315 128 105 81
-0.34286845 -0.23883678 -0.45885372 102 87 78
-0.309032 -0.2511827 -0.41537535 187 166 144
-0.3080957 -0.31281886 -0.4338133 176 167 158
-0.30408517 -0.3725837 -0.4473419 147 138 133
-0.30185467 -0.43938085 -0.46561933 108 97 99
-0.30244082 -0.51721096 -0.49138072 186 171 144
-1.9053206 1.4520351 -1.8716332 104 53 27
-1.8867956 1.3281056 -1.8833432 89 34 0
-1.8689572 1.2025015 -1.8963902 87 34 1
-1.855527 1.0765151 -1.9150918 108 53 17
-1.8390682 0.9465691 -1.9311013 103 49 17
-1.8305461 0.8161721 -1.9572246 108 52 24
-1.8183693 0.68105996 -1.9800816 125 81 44
-2.0875819 0.58019495 -2.3473063 79 58 37
-2.5551875 0.4436725 -2.9742246 82 90 78
-2.4948788 0.23694429 -2.9567583 153 192 171
-2.4692576 0.027508501 -2.9837008 7 6 3
-1.683485 -0.039984487 -2.014112 54 39 27
-1.4066285 -0.11879648 -1.6880405 115 60 24
-0.62033427 0.041813377 -0.6533412 219 195 156
-0.5543225 0.0072087715 -0.58006316 218 189 150
-0.53556377 -0.044459186 -0.5710605 203 173 134
-0.5302281 -0.10449323 -0.5813106 151 124 92
-0.4568062 -0.111243 -0.49083838 116 100 74
-0.35697109 -0.078835994 -0.3560686 91 72 56
-0.35866505 -0.132048 -0.37323582 149 118 79
-0.35402352 -0.18100062 -0.38122815 148 108 68
-0.3476069 -0.22937673 -0.38682416 147 113 76
-0.3414961 -0.27964088 -0.39333844 178 154 133
-0.34354126 -0.34510747 -0.41441023 41 48 115
-0.3394312 -0.40392503 -0.4258587 89 91 133
-0.33361134 -0.4621182 -0.43497956 180 166 140
-2.0368953 1.3694856 -1.8407496 77 28 3
-2.00145 1.2350191 -1.8341478 69 24 4
-1.9734619 1.1035514 -1.8352648 74 27 2
-1.9409978 0.96964705 -1.8319081 90 47 24
-1.9017109 0.83345306 -1.8213757 145 99 63
-1.8720474 0.69978213 -1.8211415 146 95 52
-1.8562667 0.56731147 -1.8363737 127 62 19
-1.8459432 0.43243006 -1.8584071 119 58 19
-1.8330775 0.29376647 -1.8785002 113 54 15
-1.8097315 0.15228109 -1.8873965 95 44 11
-1.7854391 0.008766516 -1.895726 97 43 9
-0.76672256 0.10055946 -0.71576804 47 35 24
-0.7696161 0.029755076 -0.73677534 180 164 147
-0.59845394 0.027696926 -0.54289705 222 197 157
-0.5539258 -0.009920769 -0.5017403 216 189 151
-0.5438118 -0.0624608 -0.50340325 194 168 137
-0.5360963 -0.117373206 -0.5083841 148 127 94
-0.42630345 -0.08980809 -0.37679034 106 88 60
-0.35317686 -0.07461299 -0.2899355 69 56 44
-0.58100456 -0.3615331 -0.62049615 47 31 11
-0.5543083 -0.40813002 -0.6018388 104 69 42
-0.3854018 -0.2654449 -0.37429577 166 144 129
-0.37566894 -0.310767 -0.37458512 194 170 140
-0.37549478 -0.37182692 -0.3896695 145 127 109
-0.3735008 -0.43318602 -0.40276194 157 138 123
-0.36223203 -0.47995788 -0.4016698 148 133 123
-2.210343 1.4222918 -1.8181088 51 22 11
-2.177154 1.2871647 -1.8139783 72 34 12
-2.1394637 1.1499652 -1.8056718 98 49 15
-2.1017637 1.0129565 -1.797313 122 64 26
-2.065681 0.87660056 -1.7904749 126 70 27
-2.028181 0.739957 -1.782241 138 80 35
-1.9908718 0.6035411 -1.7741526 139 75 34
-1.9607378 0.46793473 -1.7732756 119 61 19
-1.9397027 0.33172464 -1.7819053 100 46 14
-1.9166247 0.19351554 -1.7888751 90 36 8
-1.8867073 0.054230154 -1.7890395 116 70 38
-0.8560346 0.114064485 -0.7140533 104 90 70
-0.76347196 0.06912028 -0.62870324 44 33 20
-0.66994655 0.03686191 -0.5395399 217 190 152
-0.57347375 0.019182852 -0.44409746 230 205 164
-0.55943 -0.027998084 -0.4401258 212 184 142
-0.56206137 -0.08539209 -0.45560265 126 105 77
-0.5455591 -0.13186619 -0.4489413 158 133 99
-0.38032156 -0.054720875 -0.26157343 20 7 3
-0.64117336 -0.34248948 -0.5942814 94 61 33
-0.6174373 -0.39335337 -0.58114505 82 47 14
-0.6022457 -0.4522397 -0.5785947 86 50 17
-0.57314706 -0.4933721 -0.55776995 115 86 51
-0.53687376 -0.5208999 -0.5265285 144 113 78
-0.4991735 -0.5405264 -0.49205974 136 106 64
-0.45748496 -0.5468728 -0.45052886 199 161 107
-2.3533006 1.3387374 -1.7888902 37 37 34
-2.3203588 1.2017267 -1.7851411 44 51 49
-2.2872941 1.0642966 -1.7813597 46 48 41
-2.2507243 0.9255171 -1.7745577 38 40 36
-2.2159624 0.7871314 -1.7693735 55 49 36
-2.184185 0.649008 -1.7669373 48 41 29
-2.1476886 0.5098286 -1.7602832 85 58 31
-2.1044307 0.3703823 -1.7473398 110 62 32
-2.0677948 0.23159705 -1.7404773 120 61 24
-2.0312119 0.092813835 -1.7336636 108 51 13
-2.0056455 -0.04780634 -1.737548 105 52 13
-0.776741 0.097827874 -0.5559511 85 70 56
-0.76062167 0.041416876 -0.5520095 41 29 12
-0.6524507 0.021308782 -0.45452774 223 201 161
-0.6004862 -0.010298827 -0.4120476 204 178 138
-0.6106136 -0.06999991 -0.43337795 182 155 119
-0.58147997 -0.108315885 -0.41364297 172 150 114
-0.5556951 -0.14612985 -0.39694968 127 103 81
-0.4495798 -0.11461328 -0.29116583 89 68 42
-0.67400944 -0.3721799 -0.5527262 128 90 68
-0.64919645 -0.42052636 -0.5390317 87 60 26
-0.623926 -0.4662992 -0.5243981 100 60 31
-0.5914224 -0.5006946 -0.50072503 117 87 56
-0.5547221 -0.5251536 -0.47114637 141 110 75
-0.5139048 -0.5379334 -0.4353915 173 136 87
-0.4825324 -0.55910164 -0.4101583 146 111 66
-2.5231194 1.386969 -1.7544132 49 46 44
-2.4948292 1.2505338 -1.7542918 44 45 42
-2.4614527 1.1115755 -1.7502575 44 50 46
-2.428106 0.9722549 -1.7463129 32 38 35
-2.3964598 0.8329204 -1.7438278 30 35 33
-2.3612673 0.69240046 -1.7385134 36 38 31
-2.3271937 0.55178225 -1.7341748 25 27 23
-2.2919154 0.4107412 -1.7288789 28 28 19
-2.241677 0.26962227 -1.7107744 29 28 15
-2.2109783 0.12870507 -1.7093817 27 28 15
-2.1664276 -0.011120788 -1.6959234 39 23 8
-2.0990384 -0.1452697 -1.661887 55 32 26
-0.78338385 0.0672642 -0.4966831 58 45 33
-0.77530915 0.010863265 -0.49973577 39 31 13
-0.6556808 0.0004489357 -0.3990463 224 201 162
-0.6257133 -0.038358778 -0.38022408 208 181 141
-0.642094 -0.10114723 -0.40536657 188 155 115
-0.7332573 -0.2180848 -0.5041788 131 93 58
-0.7628927 -0.3069871 -0.54529935 118 88 56
-0.73409116 -0.35495582 -0.5290964 123 99 66
-0.70904857 -0.4039505 -0.5162966 91 60 37
-0.6792869 -0.44620854 -0.49826097 106 81 48
-0.64900213 -0.4849116 -0.47914833 134 87 53
-0.61011255 -0.50973505 -0.45020634 133 104 70
-0.5678633 -0.5246693 -0.4166362 152 121 81
-0.52903056 -0.5380772 -0.38572437 178 139 95
-0.018822957 1.417599 -1.7785722 126 77 41
0.0052539925 1.3115052 -1.7499297 98 49 28
0.028215576 1.2307018 -1.7712364 68 49 39
0.051782902 1.13794 -1.7696552 49 43 38
0.075326025 1.0416076 -1.759329 43 40 36
0.099142715 0.951226 -1.7657521 27 26 25
0.12188205 0.8491752 -1.734284 165 175 163
0.14530098 0.7560124 -1.7303619 95 80 62
0.16890046 0.6632382 -1.7290521 255 256 247
0.19202496 0.56901395 -1.7198509 139 128 112
0.21507475 0.47521564 -1.7109703 35 40 41
0.23854625 0.38203153 -1.7074877 57 50 73
0.26180384 0.28870967 -1.7016819 20 17 7
0.21111949 0.22627886 -1.0800475 35 28 26
0.21405149 0.17216867 -0.97826684 29 24 25
0.22173809 0.12029606 -0.9261641 28 23 24
0.19924565 0.10914048 -0.68979096 91 86 79
0.20042615 0.07835453 -0.6273351 204 201 189
0.20807575 0.04063341 -0.60865766 136 188 229
0.21495186 0.0051632714 -0.5881383 104 141 187
0.22292668 -0.03144438 -0.57515 90 138 192
0.23182043 -0.069370784 -0.5675847 78 127 199
0.24017346 -0.10590628 -0.5582964 124 184 248
0.24935357 -0.14395115 -0.55311865 158 224 268
0.25888178 -0.18266504 -0.54959077 118 176 244
0.26656377 -0.21695064 -0.53941303 74 112 182
-0.10495498 1.4187491 -1.8704135 97 42 2
-0.12767813 1.6923536 -2.6365936 56 49 38
-0.07209084 1.3689646 -2.2032416 74 50 38
-0.025622042 1.0758791 -1.7462331 139 72 32
-0.0021182578 0.98432964 -1.7512296 157 88 44
0.021726344 0.8897835 -1.7493464 103 73 57
0.045653395 0.7944398 -1.7454946 96 79 64
0.06968877 0.7007032 -1.750119 100 84 64
0.09386173 0.60532475 -1.7501657 102 79 57
0.117932975 0.5087141 -1.7434074 41 45 43
0.142184 0.41254634 -1.7414497 43 50 53
0.16664834 0.31609717 -1.7418262 53 58 63
0.19120115 0.21913533 -1.7415204 176 168 145
0.15655805 0.18338291 -1.0231502 34 28 27
0.16660957 0.12899588 -0.9618237 27 23 19
0.15829143 0.109345645 -0.74324185 85 77 71
0.16124676 0.07856348 -0.6635979 88 83 76
0.16533764 0.04887625 -0.6071798 116 125 127
0.17296952 0.013323051 -0.58453393 176 208 221
0.1804935 -0.0211774 -0.5644982 124 171 206
0.1892279 -0.058113955 -0.55421114 98 135 158
0.19878976 -0.09696289 -0.54955965 97 139 165
0.20869265 -0.13666286 -0.54696995 133 192 220
0.21928708 -0.17828792 -0.54772776 106 147 196
0.22859643 -0.21630523 -0.5423898 72 114 183
0.23704973 -0.25172794 -0.5337891 74 113 185
-0.21744543 1.4728824 -1.8825009 153 108 69
-0.22645193 1.5239843 -2.1803102 56 45 32
-0.25464025 1.6646725 -2.7351768 56 50 39
-0.23775664 1.6077636 -2.938921 54 51 44
-0.22194834 1.5591005 -3.220244 39 37 30
-0.20174494 1.4948487 -3.5394316 22 23 23
-0.062241923 0.851078 -1.8219781 86 72 54
-0.034122996 0.7353047 -1.7499104 158 102 57
-0.009811117 0.63837045 -1.7496139 171 101 51
0.014402106 0.5424409 -1.7612906 130 83 51
0.03908373 0.44419044 -1.7640783 77 72 104
0.06395192 0.3450964 -1.7649177 60 59 57
0.08895821 0.24541336 -1.7649989 67 48 33
0.11403985 0.1453332 -1.7631806 86 73 44
0.106367245 0.13747695 -1.0098621 33 27 24
0.11151465 0.10721473 -0.8189586 69 60 58
0.12024905 0.06882249 -0.74894756 66 62 58
0.12918209 0.030830666 -0.70230025 64 61 59
0.13808964 -0.0064653847 -0.6672958 48 46 43
0.14328887 -0.030344173 -0.60552937 66 66 61
0.14626363 -0.045647778 -0.538026 110 106 90
0.15377936 -0.07666634 -0.5173104 93 93 93
0.16542411 -0.122536056 -0.5281217 80 113 126
0.17687316 -0.16779679 -0.535581 159 184 167
0.18792073 -0.21165055 -0.5392503 96 126 147
0.19740425 -0.24974062 -0.5336823 96 124 145
-0.31152162 1.4331646 -1.9054512 102 51 13
-0.40447503 1.6948202 -2.6633496 53 49 41
-0.39454785 1.6293259 -2.8345535 54 49 38
-0.39691666 1.5947462 -3.1308393 35 35 31
-0.39088044 1.5276524 -3.4180536 35 31 26
-0.35017246 1.3586743 -3.4513516 51 43 39
-0.15101792 0.79484457 -1.849208 85 71 53
-0.12392724 0.6882565 -1.8319852 99 90 74
-0.09690367 0.58239275 -1.8117158 112 116 109
-0.070546165 0.47845408 -1.7965404 65 70 74
-0.043760564 0.37490538 -1.7671628 126 81 51
-0.017824844 0.27368698 -1.7451327 148 79 35
0.0070115677 0.17228343 -1.7540889 125 67 35
0.03213395 0.06854384 -1.770991 100 87 71
0.05752665 -0.022704098 -1.6967038 147 82 45
0.07239384 0.010223769 -1.0733604 19 15 12
0.087275006 -0.038891613 -1.0005493 23 19 15
0.095615 -0.04464292 -0.8135275 31 28 25
0.10478796 -0.06898856 -0.728828 45 40 41
0.10875023 -0.065555684 -0.5985766 73 73 68
0.11222712 -0.0654339 -0.50369006 91 82 67
0.11626968 -0.07235328 -0.44078076 141 116 89
0.12232981 -0.09244539 -0.4117375 106 91 74
0.12875292 -0.115341835 -0.39170483 159 147 125
0.13890098 -0.15793398 -0.4031462 91 88 80
0.15988375 -0.25477603 -0.48573253 61 59 65
-0.43057707 1.4797645 -1.8994082 100 54 22
-0.4544753 1.4930061 -2.1326005 63 43 22
-0.55299175 1.6654675 -2.7671683 56 48 40
-0.55198026 1.5937778 -2.9544573 52 44 36
-0.5754838 1.5620711 -3.3077826 36 34 27
-0.5759734 1.4679196 -3.5742853 25 23 19
-0.2728194 0.84263927 -1.8837745 76 66 49
-0.24429877 0.7324483 -1.8671073 96 88 72
-0.21508409 0.6221623 -1.8428643 69 70 70
-0.18809684 0.5153905 -1.8340374 73 71 65
-0.16177912 0.4092608 -1.8309911 57 57 51
-0.13442613 0.302811 -1.8171412 135 133 103
-0.10717128 0.19726504 -1.8018938 82 70 51
-0.08068532 0.091907755 -1.7948071 60 51 37
-0.05449064 -0.014036992 -1.7926378 84 50 28
-0.0236974 -0.096876726 -1.6744912 127 67 22
0.018172508 -0.030935956 -1.0188525 164 136 100
0.032237418 -0.1546354 -1.2028855 107 86 64
0.051193148 -0.22195081 -1.1753955 101 82 65
0.061591152 -0.035359647 -0.5407622 91 75 56
0.07038033 -0.048420046 -0.4777021 124 109 85
0.078433864 -0.06648697 -0.43682784 151 105 53
0.086615555 -0.09301693 -0.4179642 95 83 72
0.093440786 -0.109101765 -0.3854676 178 165 140
0.10207269 -0.14445879 -0.38598707 136 114 85
0.11033236 -0.17661601 -0.38184053 135 113 84
-0.54448843 1.4554454 -1.9562893 140 96 65
-0.70986104 1.7013049 -2.7005992 55 49 42
-0.7156292 1.6264896 -2.868963 55 49 40
-0.7490895 1.5856843 -3.1741893 33 31 28
-0.780761 1.5220072 -3.5058806 20 21 21
-0.7531096 1.3564799 -3.5938885 70 59 44
-0.4200893 0.83349895 -2.1426384 90 79 62
-0.3536663 0.6763693 -1.9433712 102 96 81
-0.32566732 0.563139 -1.9396281 74 72 68
-0.28780472 0.44526327 -1.8743819 83 76 64
-0.26074564 0.3347841 -1.872557 46 48 42
-0.22928606 0.22492072 -1.8387032 46 39 28
-0.20194788 0.11560376 -1.8329293 99 95 67
-0.17725019 0.0029266067 -1.8514808 25 23 19
-0.13611947 -0.08081128 -1.7049334 138 74 36
-0.052071217 -0.012045154 -0.99584246 187 157 115
-0.019589283 -0.009737596 -0.7632433 214 191 155
-0.0020628104 -0.038336102 -0.6887005 157 135 103
0.01582707 -0.038081624 -0.5623291 88 68 50
0.028689435 -0.051001634 -0.49384648 124 94 65
0.039468613 -0.06641451 -0.44428572 105 80 56
0.04881947 -0.102379866 -0.43987575 98 85 70
0.057663612 -0.110439956 -0.3913807 160 142 117
0.06640568 -0.14687395 -0.39205682 141 117 86
0.07531904 -0.18562368 -0.3954814 140 116 83
0.084574915 -0.22805607 -0.4027835 122 80 39
-0.66774225 1.4939739 -1.9300425 73 24 0
-0.6814776 1.4473723 -2.0560653 67 37 16
-0.87991744 1.6641363 -2.797478 52 47 36
-0.8992121 1.5859672 -2.9899158 52 46 41
-0.9644772 1.5502683 -3.3635006 46 39 35
-0.9979172 1.4505379 -3.653671 31 24 23
-1.045845 1.3407236 -4.0293903 78 66 45
-1.0154855 1.136443 -4.1234646 98 90 72
-1.0994837 0.9921856 -4.723496 69 65 62
-0.9276002 0.68682134 -4.2239194 55 55 52
-0.66947365 0.4159457 -3.2460608 77 73 67
-0.35766876 0.2549179 -1.8633398 41 31 15
-0.3319515 0.14133285 -1.8709267 54 53 40
-0.31070957 0.022682864 -1.9073042 18 21 13
-0.25787246 -0.06521798 -1.7464968 125 61 23
-0.21789742 -0.15087336 -1.6480591 192 162 122
-0.08191124 -0.005628484 -0.783728 175 148 112
-0.05666171 -0.028069915 -0.68315774 109 92 76
-0.035080623 -0.043939564 -0.5931838 149 138 118
-0.014595998 -0.043804757 -0.48935142 112 89 64
-0.0025953425 -0.07135038 -0.46202108 95 73 51
0.008379757 -0.09923463 -0.4402915 95 81 64
0.01978957 -0.112413086 -0.3985291 145 124 88
0.028487671 -0.15298699 -0.40371087 147 119 85
0.037335765 -0.19594756 -0.41102776 145 118 84
0.045504056 -0.344249 -0.5495252 132 104 72
-0.79694533 1.4651399 -1.9842148 127 84 47
-1.0454947 1.7053645 -2.7352374 52 47 38
-1.0708971 1.6245077 -2.9096572 53 47 38
-1.1353375 1.5715619 -3.2111325 35 34 27
-1.210806 1.5041269 -3.5692308 19 20 20
-1.2678491 1.3903067 -3.8981318 73 63 45
-1.3255212 1.246897 -4.2569118 93 82 67
-1.4062579 1.0816146 -4.726304 72 68 63
-1.2983048 0.79863286 -4.5656285 82 86 84
-1.1833358 0.5293349 -4.3647914 52 50 45
-0.5023883 0.28668988 -1.9222605 56 44 29
-0.4757674 0.16811188 -1.9278483 39 34 21
-0.45771053 0.04389239 -1.9722096 16 14 9
-0.3894464 -0.048074324 -1.7900203 124 64 19
-0.35379425 -0.15131561 -1.7460222 124 62 25
-0.16049273 -0.017610949 -0.8649586 190 173 140
-0.11376567 -0.01966501 -0.68382657 217 194 156
-0.09090058 -0.047485653 -0.620038 161 138 111
-0.061369833 -0.04357738 -0.5007416 113 90 66
-0.045863334 -0.06664903 -0.46137735 98 81 60
-0.03420079 -0.09845934 -0.4451667 102 86 64
-0.02016209 -0.11294718 -0.40359893 153 131 96
-0.012417066 -0.15992507 -0.4167867 155 131 95
-0.0042333924 -0.2084883 -0.4297252 148 124 91
-0.012221759 -0.45413843 -0.68861645 126 98 66
0.0022425912 -0.48870033 -0.6639803 65 35 13
-0.93857116 1.518677 -1.9803188 68 23 1
-0.9463479 1.4423708 -2.061461 71 39 20
-1.248569 1.6714139 -2.850575 51 46 37
-1.2967372 1.5906585 -3.0631301 48 42 35
-1.4043111 1.5420532 -3.4403222 45 41 35
-1.4591968 1.4199784 -3.7047658 35 30 26
-1.57879 1.3131337 -4.1631856 78 71 62
-1.6705735 1.1475395 -4.576876 62 58 56
-1.6886162 0.91310585 -4.8076124 50 54 55
-1.6544421 0.64245397 -4.899526 39 41 44
-1.4708282 0.35414878 -4.530489 39 35 35
-0.93997216 0.15472618 -2.9942338 12 16 11
-0.87467176 -0.018329892 -2.9151843 24 25 23
-0.54047495 -0.034018245 -1.8667397 132 69 20
-0.46408504 -0.11503537 -1.684396 164 121 84
-0.30888304 -0.08782922 -1.1719674 173 140 104
-0.18648563 -0.028978512 -0.7401729 118 96 71
-0.1499913 -0.046744455 -0.63756335 100 81 58
-0.12775497 -0.07692317 -0.5893664 89 71 54
-0.097142965 -0.07780147 -0.49291658 109 87 58
-0.083883 -0.11204026 -0.47619706 98 85 66
-0.062711254 -0.11484107 -0.41111428 156 131 96
-0.056336418 -0.16592678 -0.42870253 155 130 93
-0.049881995 -0.22171415 -0.44951808 156 130 98
-0.07443957 -0.47323206 -0.71356404 123 100 67
-0.05660875 -0.5001214 -0.6769066 70 43 23
-1.0755123 1.4742317 -2.0120108 132 90 60
-1.4288602 1.720989 -2.7973719 50 47 37
-1.4825841 1.6371514 -2.9906876 51 45 36
-1.5707389 1.5623171 -3.2696903 40 36 31
-1.6859056 1.4794663 -3.6251009 39 40 39
-1.7070684 1.3076367 -3.785786 70 63 52
-1.7023516 1.1068594 -3.8955727 81 79 69
-1.8353052 0.94094676 -4.348668 72 73 68
-1.9075352 0.71270585 -4.6789308 41 46 59
-1.3339379 0.39771286 -3.3519216 -2 71 253
-1.2512555 0.19711351 -3.255153 9 11 3
-1.1048065 0.021749308 -2.974166 41 42 28
-0.8990384 -0.095589586 -2.500768 11 7 2
-0.5230081 -0.05051796 -1.4776169 187 151 108
-0.4036497 -0.07293813 -1.1752186 161 136 102
-0.27467704 -0.042726975 -0.8153091 124 103 77
-0.21607934 -0.048626646 -0.6637395 124 103 76
-0.1865619 -0.075957924 -0.60222465 128 106 79
-0.15807123 -0.095276244 -0.5385486 133 111 80
-0.13436179 -0.11413833 -0.48725495 115 83 56
-0.10707065 -0.11445792 -0.4151846 155 129 97
-0.10231747 -0.16823913 -0.43535218 155 129 95
-0.09813475 -0.2288837 -0.46121016 157 130 95
-0.13749395 -0.4728257 -0.71399534 82 59 34
-0.11816139 -0.5054577 -0.6826775 87 58 31
-0.09840982 -0.527877 -0.6440304 90 60 33
-1.2179995 1.5195276 -1.987741 73 21 3
-1.2076973 1.413067 -2.018952 76 34 8
-1.6643469 1.6810429 -2.913521 47 41 34
-1.7441434 1.5931265 -3.1388032 51 43 36
-1.8315314 1.4877566 -3.3901696 35 32 32
-1.8543634 1.3219383 -3.5266206 35 34 37
-1.8564372 1.132102 -3.6284645 74 68 61
-1.828385 0.9203942 -3.673438 95 90 75
-1.7857492 0.6993395 -3.6902459 96 92 76
-1.730995 0.4738448 -3.6819475 98 92 73
-1.6586465 0.24837472 -3.6338842 103 92 65
-1.5807631 0.028118134 -3.5706482 83 74 50
-1.2915764 -0.1206719 -2.9934323 51 49 35
-0.76449025 -0.08584646 -1.7847499 112 58 18
-0.52639806 -0.072395846 -1.2399383 145 112 75
-0.24655747 0.050612997 -0.5447312 228 102 6
-0.21899588 0.020063506 -0.4980959 158 105 30
-0.23992272 -0.06299907 -0.587888 123 104 81
-0.21899201 -0.09998923 -0.5595304 123 101 71
-0.18765981 -0.11488752 -0.49636576 120 100 71
-0.15597458 -0.11833993 -0.42654547 153 128 90
-0.15161759 -0.17179377 -0.44405934 154 129 94
-0.14927341 -0.23442972 -0.4708203 155 130 91
-0.20455061 -0.47647604 -0.7195892 101 73 47
-0.1717237 -0.47215834 -0.6432128 98 60 28
-0.15590388 -0.51689106 -0.6303649 88 52 26
-1.3418033 1.448119 -1.973153 82 30 1
-1.3153877 1.3250452 -1.9751506 82 42 23
-1.2909443 1.2024714 -1.9807944 97 45 23
-1.244491 1.065554 -1.9495722 102 53 29
-1.2624253 0.9639794 -2.0290887 91 61 39
-1.8700137 1.101694 -3.1595926 69 63 53
-1.9312816 0.93989116 -3.3503377 51 52 52
-1.9315319 0.74215674 -3.4372053 35 38 38
-1.9064384 0.53024614 -3.4806006 29 21 15
-1.8571635 0.31168327 -3.4795148 17 14 16
-1.7880234 0.0939913 -3.4391196 59 52 34
-1.7069851 -0.11734533 -3.372632 75 65 42
-0.9508252 -0.074228644 -1.8719859 127 65 23
-0.66946524 -0.07325793 -1.3201939 185 151 107
-0.3122638 0.053276498 -0.5649284 106 93 66
-0.25482067 0.04165878 -0.4574349 217 158 69
-0.24640326 -0.0030234784 -0.46045843 122 73 36
-0.2555676 -0.06928774 -0.5073639 129 110 85
-0.24939682 -0.122345835 -0.51844895 131 109 82
-0.21121883 -0.12653549 -0.4454635 152 127 90
-0.20583688 -0.17838179 -0.457565 155 128 90
-0.20334618 -0.2389302 -0.47913375 152 127 90
-0.27641857 -0.483096 -0.7289904 62 44 27
-0.25047508 -0.5140016 -0.69165075 76 57 34
-0.22258623 -0.5316933 -0.64472663 104 77 49
-0.1970741 -0.5474492 -0.6016145 106 77 42
-1.5024673 1.5040135 -1.9657443 90 38 10
-1.6264583 1.4859271 -2.1860206 53 36 25
-1.8748646 1.5251236 -2.5988693 50 42 35
-1.8631124 1.3749336 -2.635299 43 39 45
-1.8572528 1.2229291 -2.682557 37 43 46
-1.8431691 1.0616144 -2.7191696 58 57 57
-1.5790148 0.8151923 -2.3573885 80 64 51
-1.2753025 0.5990783 -1.9160738 137 78 39
-1.2494326 0.4707911 -1.9199362 131 69 33
-1.2257085 0.34131128 -1.9279425 119 77 42
-1.2793872 0.20488922 -2.0718184 90 54 24
-1.9204956 -0.053770773 -3.2730815 39 28 14
-1.1243544 -0.049859263 -1.9010334 103 49 16
-0.9430631 -0.118656844 -1.6148915 152 113 80
-0.40896925 0.04281681 -0.63452077 109 91 65
-0.31801307 0.041524258 -0.47842556 216 105 46
-0.2809162 0.018304935 -0.4233224 133 93 61
-0.28380826 -0.03613599 -0.4488396 137 123 102
-0.3094854 -0.12112469 -0.5251063 66 48 29
-0.27445316 -0.13858959 -0.4713865 154 128 98
-0.26573306 -0.18717165 -0.47470286 147 122 84
-0.2623755 -0.24598403 -0.49111044 154 129 96
-0.3246118 -0.43539616 -0.6697095 71 50 30
-0.31614283 -0.50601894 -0.6817733 56 38 23
-0.28637466 -0.5279114 -0.638786 141 112 74
-0.2573637 -0.54343164 -0.5946983 160 129 90
-1.6310946 1.4272882 -1.945108 133 91 64
-2.0504897 1.5712528 -2.5384989 44 41 37
-2.043102 1.4228086 -2.5760186 34 29 32
-2.0394657 1.2711966 -2.6203108 40 46 47
-2.029384 1.1112547 -2.657495 44 49 51
-2.0374892 0.9518831 -2.7222764 62 62 55
-2.0282135 0.7799755 -2.764626 41 39 34
-2.0233042 0.6026336 -2.8154333 44 44 41
-2.019387 0.41806826 -2.870131 20 24 24
-2.122069 0.22204137 -3.0914524 38 39 20
-2.0899448 0.014199225 -3.1107101 14 10 2
-1.6243926 -0.096778855 -2.435958 72 37 17
-1.1468346 -0.11463249 -1.7122467 124 62 20
-0.524853 0.031729843 -0.7139027 101 71 40
-0.4218902 0.021973776 -0.5598107 108 105 82
-0.34199986 0.018233933 -0.4389891 195 171 137
-0.32613295 -0.02086913 -0.42760515 180 154 125
-0.32946268 -0.0772197 -0.4512193 139 111 79
-0.3293014 -0.1338379 -0.46958804 134 106 70
-0.3219735 -0.18474793 -0.47513136 146 120 90
-0.2895789 -0.20072879 -0.4308953 184 158 125
-0.2749685 -0.2381758 -0.4208865 143 118 97
-0.37360278 -0.4803172 -0.6511856 75 51 37
-0.34996867 -0.5197458 -0.62804246 185 152 104
-0.3167744 -0.5336688 -0.5819081 171 139 92
-0.2920234 -0.5595323 -0.55259866 202 166 118
-1.7777222 1.4691387 -1.9086219 93 40 16
-1.7811378 1.3586941 -1.9451612 66 26 14
-2.1750484 1.445841 -2.4584746 49 34 27
-2.2067955 1.3128124 -2.5402591 38 43 40
-2.203581 1.1563152 -2.5810251 39 47 50
-2.2133071 0.9981661 -2.6399565 54 56 51
-2.2382884 0.8356832 -2.7209918 63 57 40
-2.3113859 0.67007715 -2.8687012 41 39 31
-2.3198767 0.48012072 -2.9351225 54 55 44
-2.355196 0.28040817 -3.0410333 9 17 13
-2.3657894 0.06803303 -3.116798 13 9 6
-2.186209 -0.12062305 -2.9257574 47 35 22
-1.3237958 -0.09322194 -1.738964 115 55 13
-0.98051095 -0.10051612 -1.271811 181 151 110
-0.5158655 0.016933277 -0.6027663 127 108 80
-0.40661654 0.019494234 -0.45268795 167 108 44
-0.3934694 -0.024295263 -0.44735238 199 172 138
-0.19464968 0.08750224 -0.1433124 159 131 98
-0.15597782 0.093156196 -0.0888179 196 179 150
-0.1676459 0.05220782 -0.11658397 117 98 77
-0.19956659 -0.01884398 -0.18072142 114 91 70
-0.2352296 -0.10661021 -0.25479767 160 141 122
-0.2328948 -0.14899676 -0.26383734 222 194 165
-0.23964833 -0.20909946 -0.29041272 182 173 161
-0.24496086 -0.27197266 -0.31581774 46 43 74
-0.2508847 -0.34163356 -0.34401712 182 167 154
-1.8742472 1.3690543 -1.8449751 96 42 15
-1.8651645 1.2500147 -1.8641051 88 35 6
-1.8539529 1.127131 -1.881592 94 40 9
-1.8390532 1.0000707 -1.8956014 111 56 22
-1.8262327 0.8711879 -1.9126352 105 50 14
-1.8103036 0.738676 -1.926765 105 49 21
-1.8050821 0.6053598 -1.9542854 111 65 37
-1.8684407 0.47417906 -2.0657136 87 59 35
-2.5367327 0.33852723 -2.9232152 216 221 186
-2.5828848 0.12892473 -3.0334258 7 4 1
-2.553195 -0.08579345 -3.051545 21 16 11
-0.81122977 0.09280036 -0.8609521 71 41 25
-1.2939343 -0.14072034 -1.5148386 183 150 107
-0.5684111 0.034757797 -0.5767185 222 195 157
-0.53332776 -0.008191678 -0.54445326 212 185 147
-0.5261517 -0.06395045 -0.54981595 104 86 63
-0.5061097 -0.11163448 -0.5372789 150 127 96
-0.18406522 0.09556394 -0.08793774 150 129 97
-0.17030662 0.080860175 -0.07473945 95 75 55
-0.16973612 0.053914174 -0.08089898 144 103 63
-0.17127047 0.023145182 -0.09062403 153 117 80
-0.18057029 -0.020061225 -0.11307907 209 181 150
-0.21266037 -0.10171786 -0.17339048 120 108 117
-0.2611262 -0.22209778 -0.26372877 24 48 117
-0.24906498 -0.25090167 -0.25621143 227 209 174
-0.2276589 -0.26002872 -0.23217559 195 176 154
-2.00496 1.4016513 -1.7916477 66 20 2
-1.9856358 1.2777634 -1.7980491 74 27 2
-1.9751954 1.1561326 -1.8138524 73 28 4
-1.9599537 1.030082 -1.8252966 80 31 5
-1.9332081 0.8983174 -1.8251966 94 53 27
-1.9074677 0.76593965 -1.8263563 144 98 67
-1.8937658 0.6346438 -1.8407022 146 97 61
-1.8828499 0.5009183 -1.8587047 127 64 24
-1.8679848 0.36377558 -1.8730725 119 59 18
-1.8526345 0.2237761 -1.8875439 114 55 18
-1.8356473 0.08099728 -1.9008162 102 48 15
-0.9270166 0.105856255 -0.88150996 62 46 32
-0.7445535 0.07549185 -0.6848016 46 35 25
-0.6391694 0.045410313 -0.574021 215 191 151
-0.5636017 0.017933877 -0.49591652 218 194 155
-0.54869956 -0.030862112 -0.49030408 204 177 139
-0.54967546 -0.08930052 -0.50458187 176 143 103
-0.5354317 -0.13923295 -0.49996027 139 120 89
-0.3795473 -0.06963843 -0.31034416 10 8 4
-0.42611167 -0.16123497 -0.38296524 100 74 46
-0.42158523 -0.21124539 -0.3892023 88 63 41
-0.22821964 -0.03867858 -0.13453111 115 90 67
-0.20752284 -0.046771787 -0.11326772 190 167 146
-0.21451165 -0.091156855 -0.1310819 151 133 114
-0.23507267 -0.1607512 -0.16972719 126 112 104
-0.24054725 -0.21219905 -0.1874461 153 138 127
-2.1331189 1.3187695 -1.7603897 69 37 21
-2.1029959 1.1883036 -1.7559766 83 35 6
-2.0727777 1.0574914 -1.7515366 111 56 15
-2.0463424 0.92750716 -1.750772 128 69 33
-2.0213306 0.79708904 -1.7515401 127 70 32
-1.9992192 0.6662064 -1.7553468 139 79 37
-1.9797912 0.53423405 -1.7620974 136 72 31
-1.9611399 0.40047237 -1.7699958 117 58 18
-1.9470812 0.2646157 -1.7829785 97 44 9
-1.9390329 0.12547462 -1.8027241 89 37 5
-1.9222845 -0.016101781 -1.8141229 103 54 18
-0.75351036 0.10650437 -0.60258293 72 59 44
-0.75037503 0.044838764 -0.6117722 39 29 19
-0.6279175 0.027896212 -0.4908111 217 193 154
-0.5804487 -0.006537926 -0.44951382 223 199 156
-0.57016754 -0.055790227 -0.4489554 209 181 143
-0.5848651 -0.12164692 -0.47709566 142 115 85
-0.5604684 -0.16339074 -0.4606958 144 123 92
-0.41264054 -0.098633304 -0.29757676 47 37 23
-0.4504018 -0.18181749 -0.35261592 96 55 21
-0.45419586 -0.23933613 -0.36801013 99 54 20
-0.45809552 -0.30018458 -0.38417983 89 52 19
-0.4582731 -0.35971338 -0.3963047 109 79 48
-0.43726635 -0.3923054 -0.38151112 142 112 81
-0.4177264 -0.42471492 -0.3681705 167 130 83
-0.39289463 -0.44610715 -0.3472452 177 137 94
-2.2922742 1.3649234 -1.7314364 41 39 34
-2.2814944 1.2413304 -1.7435286 42 43 46
-2.265665 1.1136014 -1.7516733 47 52 49
-2.2510848 0.9843402 -1.7612518 39 39 38
-2.2301438 0.8513903 -1.7655858 50 48 44
-2.2095885 0.7170112 -1.7705332 49 43 38
-2.1849003 0.5804839 -1.7720286 54 43 36
-2.1548877 0.44240573 -1.7688594 87 57 37
-2.1285388 0.30376714 -1.7691911 113 60 34
-2.1061459 0.16381015 -1.77343 117 61 25
-2.0884044 0.021598171 -1.7823899 107 53 21
-1.2162683 0.044473607 -0.96880823 128 108 92
-0.7573775 0.07655335 -0.53714323 51 41 27
-0.73699224 0.02363524 -0.52768373 200 182 166
-0.6305223 0.007738325 -0.43170372 228 205 166
-0.60834783 -0.03537719 -0.41883084 202 173 136
-0.62205833 -0.09764202 -0.4426892 168 143 115
-0.6100972 -0.14719085 -0.44044632 176 152 119
-0.4447383 -0.08111516 -0.2751509 26 15 5
-0.4811717 -0.15762739 -0.32264733 93 65 39
-0.49622348 -0.22277975 -0.34826687 109 78 54
-0.49235535 -0.27327868 -0.35370556 121 91 60
-0.48793077 -0.3245825 -0.3587716 108 65 39
-0.4876 -0.3824302 -0.3688075 113 83 50
-0.46576843 -0.41333202 -0.3540691 177 141 97
-0.44460285 -0.4427491 -0.33968347 146 112 72
0.10251134 1.6168956 -2.0698106 108 46 15
0.13512303 1.6324893 -2.301128 66 54 48
0.17579126 1.65923 -2.6009817 61 52 42
0.21441253 1.5818479 -2.7252533 63 54 42
0.26264542 1.5334055 -2.9557137 43 39 35
0.32846096 1.5189093 -3.3507695 25 26 26
0.3855619 1.4050142 -3.5353045 88 72 56
0.4326057 1.2359886 -3.5699239 95 76 59
0.47926846 1.0602345 -3.5916178 111 91 69
0.313476 0.61093104 -1.8378279 73 65 55
0.33271646 0.50723994 -1.7980185 25 27 31
0.35585985 0.40872845 -1.7910658 32 36 40
0.37493515 0.31015682 -1.7582028 18 20 22
0.30287743 0.23551051 -1.1843321 26 16 14
0.28756014 0.18160701 -1.0029502 17 12 12
0.27605823 0.1392688 -0.8638416 23 18 17
0.22919793 0.13955267 -0.5668902 83 78 71
0.2327584 0.1060532 -0.5371756 83 75 68
0.22237083 0.09188126 -0.44912195 128 185 206
0.22737065 0.061893675 -0.43402606 238 261 263
0.23283489 0.032029912 -0.42207083 85 136 189
0.23892573 0.0017471525 -0.41343823 82 120 192
0.24424937 -0.026795264 -0.40265426 101 141 208
0.2504431 -0.05644729 -0.39565948 98 143 218
0.2574566 -0.087410405 -0.39181995 70 116 191
0.2636561 -0.11661135 -0.3855662 69 111 182
0.010503942 1.5671469 -2.082417 122 55 23
0.03148203 1.7064017 -2.5780144 62 52 40
0.06364443 1.6260867 -2.6917338 60 50 41
0.10015178 1.5889691 -2.9396684 43 40 38
0.14100543 1.5047659 -3.123294 59 49 45
0.1930965 1.463581 -3.50296 54 48 41
0.241182 1.3115699 -3.602757 96 85 66
0.2877693 1.1340566 -3.6329503 104 86 66
0.20805861 0.6448628 -1.8376367 81 66 51
0.2283036 0.5376225 -1.784566 90 86 80
0.2520949 0.43861842 -1.7816201 56 52 67
0.27573922 0.33935168 -1.77677 33 38 47
0.26123586 0.2484135 -1.4458699 25 22 22
0.23770715 0.19022904 -1.1055229 28 23 24
0.22686131 0.14696476 -0.9124766 29 23 26
0.19177994 0.1448611 -0.5911664 85 79 76
0.19861265 0.107292116 -0.5702305 99 92 85
0.19100189 0.09320002 -0.47053814 135 188 217
0.19558884 0.063997135 -0.44772705 85 125 190
0.20150784 0.03348495 -0.43406162 241 252 263
0.2076495 0.0031538086 -0.42280376 70 121 185
0.21403496 -0.027217098 -0.41365996 152 214 266
0.22002837 -0.05637098 -0.4036526 88 139 216
0.22671193 -0.08673876 -0.39720646 78 120 190
0.23356023 -0.11729477 -0.3918333 71 113 184
0.23842198 -0.1427954 -0.37964416 75 112 185
-0.11016315 1.6096603 -2.0678587 90 36 17
-0.0880585 1.53511 -2.1339273 83 38 19
-0.06344426 1.4457488 -2.183031 94 55 37
-0.03637917 1.338522 -2.2024572 112 53 23
-0.008057911 1.2200348 -2.1985633 136 72 44
0.0056623355 1.3842698 -3.0509984 69 49 35
0.041354995 1.3607906 -3.531185 139 143 139
0.08649226 1.2158419 -3.6941636 93 77 60
0.13391045 1.0357791 -3.7582593 113 99 77
0.122292 0.5685672 -1.771573 121 116 93
0.14623234 0.46895304 -1.7703815 31 36 48
0.1699458 0.36871022 -1.7631402 42 50 56
0.19339328 0.26870477 -1.7525582 108 98 81
0.18259504 0.19635245 -1.3010154 34 29 21
0.17430174 0.15216693 -0.998096 28 23 24
0.15273012 0.14770311 -0.6359807 84 75 75
0.1591254 0.110955074 -0.5965863 89 83 78
0.15733065 0.09320323 -0.49946317 39 51 82
0.16235185 0.064340204 -0.46849138 147 190 223
0.16892587 0.0329435 -0.45258135 174 183 205
