ply
format ascii 1.0
element vertex 1091
property float x
property float y
property float z
property uchar red
property uchar green
property uchar blue
element face 0
property list uchar int vertex_indices
end_header
1.4756716 -0.0042837635 -0.5644294 198 171 143
0.3552569 0.048684653 0.06394392 43 68 110
0.35121307 0.03402112 0.069776654 119 193 254
0.35093075 0.01861644 0.07363493 216 254 254
0.35180423 0.002565567 0.07698695 173 247 255
0.35382316 -0.014331185 0.079886615 151 233 263
0.35674658 -0.032193456 0.08250032 87 142 219
0.3587295 -0.05039313 0.085733235 84 141 215
0.35998902 -0.06889897 0.08945352 81 135 212
0.3597372 -0.08716473 0.09398095 79 131 210
0.35855922 -0.10529402 0.099005595 75 129 209
0.3537084 -0.12124755 0.10560963 93 164 249
0.35122782 -0.13884571 0.11125209 76 127 209
0.34637806 -0.15469044 0.11782941 41 45 53
0.3340838 -0.1638015 0.12705046 105 123 192
0.320162 -0.1701543 0.1365408 32 54 110
0.30956623 -0.17844446 0.144593 52 68 108
0.30025882 -0.18710628 0.15199716 32 43 64
0.2947941 -0.19941232 0.15807714 33 44 70
0.28779566 -0.209457 0.16449204 39 69 117
1.6018134 0.39580604 -0.8177962 143 99 59
1.5738496 0.31988904 -0.78297424 179 124 49
1.6138422 0.2524473 -0.79288787 191 156 120
1.5945791 0.17585568 -0.7633948 190 158 122
0.77805316 0.090142384 -0.22952957 85 70 56
0.5049207 0.064237624 -0.051575672 29 24 27
0.34684578 0.055359565 0.05002922 17 22 49
0.34292606 0.040505707 0.055864852 99 154 228
0.34024814 0.025456637 0.06096236 46 91 162
0.33930075 0.009881933 0.065088674 58 104 170
0.340077 -0.0065165027 0.06831567 68 112 184
0.34128588 -0.023574658 0.071419634 69 121 192
0.3416358 -0.04083379 0.075110324 75 130 202
0.34196448 -0.058569375 0.07892233 77 135 212
0.34207302 -0.0766861 0.08295945 82 136 214
0.34101406 -0.09457307 0.08768002 79 133 214
0.33981982 -0.11272609 0.09254615 104 181 247
0.33700353 -0.13000791 0.09823678 250 253 253
0.33512476 -0.1482058 0.103544354 85 171 249
0.32646134 -0.160587 0.111808345 96 119 206
0.31187823 -0.1664879 0.1223335 62 104 167
0.30145696 -0.17510407 0.1308518 24 48 88
0.2919549 -0.18368664 0.13878335 44 73 125
0.28459165 -0.19388843 0.14573435 10 22 60
0.27778205 -0.20415129 0.15235034 31 51 88
0.27358943 -0.21743742 0.15800261 24 32 55
1.6181501 0.44806567 -0.9333198 185 150 112
1.6085308 0.37172827 -0.91046727 184 151 115
1.6037709 0.29524294 -0.89095217 188 155 119
0.64082825 0.13312168 -0.18899128 86 71 55
0.5139141 0.09853607 -0.09367178 32 29 29
0.49547258 0.07483428 -0.075861745 34 32 26
0.35184258 0.061231673 0.02659812 131 127 125
0.33499503 0.047067802 0.041280996 83 130 199
0.32915646 0.032400772 0.048438232 73 131 199
0.3276533 0.016969284 0.05275189 48 90 164
0.32854834 0.0005887077 0.055604063 46 89 163
0.32817438 -0.015869915 0.059352655 45 87 164
0.32809916 -0.032851808 0.06300499 40 85 159
0.3274326 -0.04999733 0.067102 40 82 159
0.32658327 -0.067433745 0.07138744 37 79 155
0.32586032 -0.08533214 0.07568315 35 77 154
0.32451543 -0.10321811 0.08040742 38 81 157
0.3231467 -0.12143175 0.08521767 66 116 200
0.3226195 -0.1407074 0.08966969 11 121 250
0.31864396 -0.15733463 0.09595087 25 29 36
0.30428237 -0.16364121 0.107244514 156 166 217
0.29148543 -0.16992748 0.11744912 69 89 141
0.2824876 -0.1790901 0.12562963 47 62 105
0.2744493 -0.18851024 0.13319956 40 45 69
0.26775268 -0.19890776 0.14004649 54 61 87
0.26295397 -0.21140344 0.14602248 38 52 85
1.261411 0.34580252 -0.74371046 157 115 83
1.4951447 0.3244308 -0.9177935 163 129 99
1.5880399 0.26088122 -0.9761921 190 155 114
1.303157 0.1614436 -0.7394226 110 93 77
0.49333584 0.08591623 -0.10696288 7 6 7
0.48090678 0.062136926 -0.092823185 31 25 26
0.32715267 0.05377375 0.026085572 6 24 65
0.31782266 0.039402448 0.036017906 73 125 196
0.31546536 0.024177928 0.040799327 47 90 164
0.3169358 0.0077269655 0.042901658 46 91 166
0.31713146 -0.008910106 0.046012733 53 93 170
0.31600252 -0.025488643 0.050122574 45 91 165
0.31532332 -0.04261577 0.053996935 43 88 162
0.31420696 -0.059910987 0.058237657 38 83 159
0.31235692 -0.077114314 0.063019976 40 81 157
0.31089243 -0.09485851 0.067614205 37 79 156
0.30937007 -0.11290163 0.07231112 34 76 154
0.30908784 -0.13234778 0.07633717 33 77 156
0.3076427 -0.15127909 0.0811493 9 14 26
0.2991265 -0.1634518 0.09003014 92 98 130
0.2832525 -0.16675463 0.102784604 47 83 130
0.2731405 -0.17476234 0.112066396 38 57 96
0.26448825 -0.1834509 0.12036819 26 36 63
0.2578007 -0.19386639 0.12750995 35 48 81
0.25219768 -0.2052411 0.13401249 25 37 65
0.2469401 -0.21670954 0.14026989 66 67 92
1.0641141 0.33788127 -0.66426474 86 53 39
0.918606 0.25589213 -0.5275262 7 3 9
0.9150168 0.20920525 -0.51619065 0 0 5
0.9221279 0.1627004 -0.513868 106 56 40
0.91190547 0.113492295 -0.49651572 117 60 35
0.8255742 0.06573585 -0.415546 26 14 13
0.32014382 0.060590945 0.009566966 123 121 117
0.31018174 0.045892052 0.020548427 99 158 235
0.30405447 0.031209115 0.028308561 51 94 172
0.30543074 0.014844211 0.03007101 48 90 167
0.30622622 -0.0019722187 0.032401357 52 94 171
0.30553755 -0.018783953 0.035976555 48 92 170
0.30423668 -0.03571747 0.040087238 45 90 168
0.30305305 -0.0530574 0.04417199 43 87 165
0.3007816 -0.070095606 0.04911589 41 83 160
0.29846546 -0.08732746 0.05413185 40 81 158
0.2969767 -0.105433 0.058609214 35 77 154
0.2961556 -0.12448997 0.06269577 35 77 154
0.29589534 -0.14458595 0.066496894 33 76 149
0.29140875 -0.16093968 0.0731779 52 55 66
0.27617562 -0.165091 0.08670281 26 45 69
0.26369563 -0.17047156 0.0981362 31 49 89
0.25469404 -0.1787279 0.10716296 31 69 128
0.24703915 -0.18779759 0.115204476 48 71 113
0.24157612 -0.19932923 0.12184531 7 9 25
0.2357857 -0.20987864 0.12858582 58 64 80
0.8687108 0.27532068 -0.55421114 0 0 1
0.85815215 0.22832933 -0.536997 18 5 5
0.85607827 0.18237118 -0.52778804 133 79 58
0.8594933 0.13575074 -0.52354646 151 88 70
0.8619532 0.08738652 -0.51814544 37 20 15
0.7639998 0.042852473 -0.4205564 141 84 76
0.30626598 0.052119303 0.0009832396 0 0 3
0.29428867 0.037946448 0.014300809 45 90 166
0.29359075 0.022058683 0.017466793 48 90 169
0.2943443 0.0053119473 0.019427728 48 92 172
0.29429945 -0.0117388945 0.02217472 50 94 174
0.29329687 -0.02887082 0.025819665 47 94 171
0.29135802 -0.045901023 0.030313704 48 92 173
0.2886667 -0.06274203 0.035473138 54 104 184
0.28667322 -0.080246106 0.040092867 52 96 174
0.28506228 -0.09834944 0.044454176 40 82 160
0.2833907 -0.116778836 0.048923273 37 79 156
0.2824509 -0.13630375 0.0528899 38 82 158
0.28080434 -0.15562455 0.057477277 32 35 45
0.26968428 -0.1644224 0.06914977 98 97 118
0.25470713 -0.16693209 0.083389 50 63 91
0.24497512 -0.17426075 0.093545616 51 58 85
0.23711756 -0.18302278 0.102197416 42 44 60
0.2302139 -0.19231632 0.11005205 46 50 67
0.22348234 -0.20108974 0.117665075 33 41 69
0.21674895 -0.20904009 0.12514919 2 3 6
0.8392207 0.2994025 -0.60001945 4 3 4
0.82465273 0.2511376 -0.5785748 1 0 3
0.8216057 0.20515895 -0.56917953 94 53 39
0.823535 0.15872031 -0.56479096 44 25 29
0.8275571 0.11073327 -0.56232244 102 58 52
0.83310604 0.06073332 -0.56113404 78 51 52
0.29577115 0.059358355 -0.013548417 62 60 54
0.28687775 0.044384953 -0.0024397282 100 162 241
0.2822192 0.029166022 0.004388406 51 97 176
0.28187224 0.012784031 0.006983364 51 93 174
0.2823351 -0.004392548 0.0088620735 52 94 177
0.28169614 -0.021697786 0.011880815 52 96 176
0.2797245 -0.038772162 0.016225597 51 95 175
0.2769407 -0.055632118 0.0213684 59 109 193
0.27530318 -0.07347458 0.025477922 81 130 212
0.27353838 -0.09159683 0.02975543 43 87 167
0.27152294 -0.10987417 0.034309417 40 82 159
0.2699363 -0.1289271 0.038532723 42 83 160
0.26902938 -0.1491769 0.042227335 1 6 23
0.26175556 -0.16245978 0.05145482 88 90 111
0.24625662 -0.16434292 0.06750168 49 78 131
0.2347283 -0.1692401 0.07991593 41 59 89
0.22646388 -0.17729978 0.08943792 30 43 66
0.2188407 -0.18527012 0.098294385 19 43 70
0.21203154 -0.19362822 0.10637466 31 42 67
0.20493416 -0.20052521 0.114548676 6 6 14
1.2119886 0.38449246 -1.1065258 50 38 35
0.8374922 0.23822938 -0.66886 10 6 12
0.80353916 0.18399166 -0.6245771 50 28 27
0.81696594 0.136037 -0.6342933 15 4 8
0.8297422 0.08471173 -0.6428993 12 4 10
0.9719665 0.02141001 -0.79576445 9 9 18
0.27777624 0.05126965 -0.018286126 2 23 74
0.27227995 0.0359912 -0.010387745 50 93 171
0.26987946 0.02010535 -0.0059032976 49 93 173
0.2693782 0.0033290272 -0.003455133 52 95 177
0.26855597 -0.013814969 -0.0006046281 51 96 176
0.26712063 -0.031115033 0.0029530195 68 123 209
0.26520994 -0.04852103 0.0070572607 77 136 223
0.26333606 -0.06629182 0.011161058 57 107 189
0.26136088 -0.084344834 0.015410512 51 97 177
0.25929126 -0.10267732 0.019797591 50 93 172
0.2578063 -0.121970385 0.023634901 42 83 158
0.25678223 -0.14229476 0.027069692 40 80 155
0.25164223 -0.15819618 0.034637257 12 15 25
0.2377484 -0.16203177 0.05069604 105 107 128
0.22624566 -0.1669829 0.064190544 60 88 126
0.21686013 -0.17336076 0.07546384 25 33 55
0.2086969 -0.18032646 0.08542833 31 38 58
0.2016159 -0.18801972 0.09425722 17 24 39
0.1953996 -0.19638145 0.10218862 76 79 91
0.18920827 -0.20391357 0.10999872 9 12 24
1.1531931 0.41933087 -1.1663085 47 35 27
1.1694821 0.35292083 -1.1809609 228 235 229
1.1906452 0.28293267 -1.2013767 20 25 32
1.1884255 0.20506574 -1.1920229 13 23 34
1.1892129 0.12502456 -1.1862278 12 13 18
1.1467489 0.043649048 -1.126488 9 9 16
0.26323465 0.05891412 -0.028139334 12 9 12
0.26183185 0.0430057 -0.025046842 107 168 243
0.2589078 0.027154865 -0.020065796 56 98 177
0.25697315 0.010836481 -0.01627659 51 95 175
0.2561683 -0.0062772357 -0.013826253 52 96 176
0.25480494 -0.023611464 -0.010662126 52 95 177
0.25294563 -0.04107776 -0.006869525 66 117 205
0.25114107 -0.058955684 -0.003110247 60 108 191
0.24913137 -0.07706967 0.0009243768 52 99 180
0.24715744 -0.09560413 0.004950017 51 96 176
0.245129 -0.11450117 0.009074231 42 83 158
0.24405858 -0.13494131 0.0121366605 38 79 153
0.24029343 -0.15262994 0.018320136 33 37 43
0.22927678 -0.16020153 0.0326726 95 96 121
0.21708773 -0.16413437 0.048176244 43 50 75
0.2068892 -0.16910595 0.061290365 60 67 92
0.19844349 -0.17538011 0.07233319 84 89 113
0.19092831 -0.18199486 0.08224663 65 75 93
0.18421015 -0.188997 0.09120089 14 18 29
0.18040988 -0.20154978 0.09699334 12 14 21
1.107637 0.38845307 -1.2406379 39 29 25
1.1212311 0.31869566 -1.2557044 43 44 43
1.1257324 0.24307552 -1.2579023 4 8 16
1.1367193 0.16457306 -1.2689036 14 22 29
1.1201403 0.081515886 -1.2415941 15 14 17
0.7986284 0.022429993 -0.7944432 20 22 27
0.2513857 0.05010377 -0.040166304 6 29 75
0.24714173 0.034451086 -0.03347357 53 95 174
0.24532974 0.018082678 -0.030101363 57 97 176
0.2437667 0.0012679765 -0.027049236 51 95 175
0.24230197 -0.016006317 -0.024108455 51 95 175
0.24095464 -0.033807244 -0.021301812 50 94 172
0.23895538 -0.051636748 -0.01759334 64 111 196
0.23704024 -0.069933556 -0.013976218 55 105 184
0.23451445 -0.088088326 -0.009523289 45 90 163
0.23239276 -0.10700389 -0.0055880356 40 81 158
0.23081249 -0.1270191 -0.0023420514 46 84 160
0.22951876 -0.14803892 0.0005616186 40 59 94
0.22151731 -0.15995595 0.012244979 90 92 112
0.20771483 -0.16139144 0.03138264 27 49 94
0.19764555 -0.16644166 0.045556743 51 84 130
0.18860081 -0.17144835 0.05831369 3 16 32
0.18102899 -0.1777022 0.069102794 30 39 65
0.17466451 -0.18523134 0.078292295 41 49 75
0.16992196 -0.19560626 0.085393146 11 14 26
0.16718027 -0.2106954 0.08998127 13 15 25
1.046592 0.42401677 -1.3008817 21 16 19
1.0593284 0.35572875 -1.3193085 28 28 25
1.0599738 0.28046787 -1.319025 22 22 26
1.062414 0.20247285 -1.3214549 -2 10 22
1.061656 0.12094235 -1.3189071 1 8 18
1.0304335 0.03771673 -1.2694864 19 15 19
0.24101964 0.05729213 -0.055959415 6 5 17
0.23554936 0.041728593 -0.047284096 101 164 242
0.23326758 0.02548654 -0.043500092 52 93 170
0.23129399 0.008844415 -0.04018326 100 160 237
0.22944319 -0.008214383 -0.03704813 59 110 177
0.2275598 -0.025655394 -0.03385645 76 140 196
0.22624886 -0.043944195 -0.031530593 47 91 167
0.22439411 -0.06235275 -0.028366525 69 117 209
0.22204809 -0.08077291 -0.024446832 62 110 184
0.21978557 -0.099689886 -0.020647129 75 124 193
0.21803318 -0.11970168 -0.017613262 39 78 152
0.21618986 -0.14022511 -0.014430921 36 75 149
0.21060388 -0.15562926 -0.005580365 19 23 34
0.19818383 -0.15891536 0.013573287 187 185 191
0.18792692 -0.16343959 0.02942175 27 46 81
0.17928815 -0.16899608 0.042799503 -1 8 27
0.17117092 -0.17384227 0.055363283 2 16 26
0.16427687 -0.17982854 0.06606556 39 46 68
0.15846479 -0.1871858 0.07512734 92 95 107
0.15630424 -0.20388608 0.07873269 17 19 26
0.94889086 0.37664068 -1.2996373 117 67 36
0.9471606 0.30568406 -1.2984394 103 55 28
0.94345367 0.23183237 -1.293915 101 53 24
0.9378185 0.15543929 -1.2861388 99 50 24
0.9346417 0.07684653 -1.2826447 91 44 21
0.9350946 -0.00488884 -1.2854707 85 42 27
0.2258834 0.048663314 -0.06464908 23 53 100
0.22129002 0.03287654 -0.057146236 49 89 167
0.21934359 0.016209798 -0.054216795 232 257 257
0.21713297 -0.00070807734 -0.050839413 43 90 163
0.21529587 -0.018215183 -0.048119012 48 93 165
0.21350962 -0.036231566 -0.04549883 220 256 257
0.21174322 -0.054785185 -0.04292623 108 172 252
0.20945622 -0.07337486 -0.039459363 149 239 258
0.20718266 -0.09244263 -0.036027566 40 87 160
0.20481962 -0.1118977 -0.032451633 34 73 145
0.20251352 -0.13195501 -0.028988663 45 80 155
0.19920778 -0.15096024 -0.02378052 13 15 22
0.19054125 -0.16052541 -0.0091180755 94 94 123
0.17807683 -0.16077223 0.012308152 33 54 98
0.16960254 -0.16640358 0.026738547 55 67 103
0.16160153 -0.17114687 0.04037742 70 74 90
0.15426117 -0.17561525 0.052887138 40 50 67
0.14768766 -0.18038668 0.0640707 9 14 26
0.14352742 -0.19104108 0.07095732 8 15 27
0.14100134 -0.20674872 0.074907474 84 97 133
1.1551882 0.5165102 -1.8639611 28 26 21
1.1752869 0.43131107 -1.9091496 27 26 27
1.210675 0.3421105 -1.9841913 31 32 33
1.1467842 0.22879438 -1.8691154 30 31 37
1.1123174 0.12404193 -1.8102807 27 31 31
1.1357712 0.017919809 -1.863511 14 13 11
0.21380633 0.056160018 -0.0784628 8 10 31
0.20986979 0.040133208 -0.072045304 95 158 214
0.20744866 0.023571167 -0.06859699 42 83 158
0.20547003 0.0064748246 -0.066043794 155 236 265
0.20329764 -0.010945207 -0.06314013 128 198 231
0.20139371 -0.029001754 -0.06080275 112 183 247
0.19901954 -0.047173604 -0.057564955 109 171 252
0.19665633 -0.065805286 -0.054382533 77 121 223
0.19414233 -0.08474503 -0.05093154 81 214 236
0.19198422 -0.10466096 -0.04824112 35 75 146
0.18919224 -0.12424608 -0.044300776 38 73 146
0.18517718 -0.14217621 -0.037873074 38 73 145
0.18128635 -0.16038457 -0.031706218 83 88 101
0.16774486 -0.15782467 -0.0053394344 47 72 117
0.1595867 -0.16380388 0.009985955 30 60 120
0.15203212 -0.16922009 0.024186498 94 145 208
0.14471129 -0.17323372 0.038039513 67 112 172
0.13796835 -0.17689642 0.050801534 53 92 152
0.13213085 -0.18162172 0.06173423 69 119 180
0.13006213 -0.1990452 0.06443722 75 86 115
1.1981806 0.51875585 -2.211572 61 59 54
1.8706858 0.60929644 -3.670598 29 29 34
2.0122004 0.46185908 -3.9997866 21 21 30
2.099996 0.27221587 -4.2170877 23 25 32
2.3306737 0.052130166 -4.75099 15 12 14
1.2714434 -0.06975852 -2.4501905 80 80 81
0.20009342 0.047047764 -0.09109819 47 74 106
0.19597082 0.030804146 -0.08424293 103 166 205
0.19379473 0.013681961 -0.08176259 94 151 206
0.1915758 -0.0038547665 -0.0792437 242 185 233
0.18965355 -0.02209195 -0.07746709 66 103 133
0.18695365 -0.040203225 -0.0739726 127 190 219
0.18413386 -0.0585854 -0.07025194 57 84 119
0.18136817 -0.07743689 -0.066712126 123 193 249
0.17827885 -0.09627428 -0.062462494 156 196 189
0.17542034 -0.11587509 -0.05881939 42 71 120
0.1717175 -0.1344048 -0.053186703 43 71 122
0.16754268 -0.15212277 -0.046413563 41 45 51
0.15677807 -0.15424044 -0.023148326 95 97 117
0.1483394 -0.15890291 -0.0053098374 62 82 127
0.1418461 -0.16658288 0.007871473 30 38 62
0.13473755 -0.17048189 0.022902034 36 46 75
0.12805225 -0.17344114 0.03713188 18 19 33
0.12223061 -0.17733596 0.04934795 93 96 109
0.118253775 -0.1871741 0.056737207 103 180 256
0.11557218 -0.20250702 0.060561586 127 123 131
1.2038875 0.6149916 -2.5268056 56 54 48
1.6444495 0.66456014 -3.6161845 39 39 42
1.7797405 0.536992 -3.9798975 24 27 31
1.8763585 0.3653675 -4.256098 29 37 42
2.151716 0.1688646 -4.98346 34 38 39
1.7932783 -0.055677 -4.134794 23 19 22
0.18415847 0.05542581 -0.09621927 4 18 46
0.18504468 0.037900195 -0.10201225 122 188 255
0.18229076 0.020829229 -0.0986277 80 126 165
0.17950867 0.0034494775 -0.09523597 68 102 142
0.17799936 -0.015300156 -0.09530059 79 155 183
0.1755459 -0.033956762 -0.09298993 56 88 111
0.17219692 -0.052136976 -0.08834697 135 204 260
0.16833134 -0.06988177 -0.08232576 125 189 252
0.16485013 -0.0883084 -0.077403136 35 56 74
0.16247356 -0.10899422 -0.07569902 37 54 84
0.15990049 -0.13012414 -0.07359524 39 57 91
0.15617934 -0.14943005 -0.068253525 3 7 22
0.15444776 -0.17424203 -0.06900225 90 91 104
0.14207561 -0.16929576 -0.037114415 103 102 120
0.13235083 -0.16738848 -0.012454587 60 64 82
0.12444625 -0.1676942 0.0072103594 33 46 66
0.11796586 -0.170214 0.022868522 12 30 51
0.11229851 -0.17356579 0.036327563 11 13 21
0.1081378 -0.18211342 0.044964753 11 20 32
0.106502205 -0.20399214 0.044575844 123 119 129
1.4637103 0.72539175 -3.6321995 35 34 35
1.5737667 0.608714 -3.982929 35 39 45
1.6701199 0.4541454 -4.305315 31 40 52
1.8453256 0.27355123 -4.862156 8 16 22
1.8198794 0.039376993 -4.8574214 27 22 27
1.3130845 -0.123940185 -3.4472094 28 22 17
0.8153278 -0.1554192 -2.0244505 55 33 16
0.52329105 -0.13833721 -1.179315 87 43 21
0.3835589 -0.12808836 -0.7743322 155 140 126
0.3281646 -0.14215569 -0.61908525 143 127 112
0.29829708 -0.16506514 -0.5398598 89 75 68
0.25546706 -0.16350546 -0.41618907 51 41 35
0.22268721 -0.16119586 -0.3212116 58 44 38
0.21006708 -0.18102096 -0.29070222 56 41 33
0.2144169 -0.23145029 -0.3179609 85 78 73
0.2069283 -0.26134995 -0.30515972 102 88 74
0.20131029 -0.29589212 -0.29909742 103 89 73
0.3705651 -0.85224485 -0.948686 65 42 28
0.15051468 -0.23463272 -0.13505538 87 78 82
0.14035098 -0.23776375 -0.10673158 100 95 104
0.1310848 -0.23972651 -0.080648184 107 102 113
0.11612686 -0.20873213 -0.028554333 84 85 101
0.10310011 -0.1749465 0.018799953 16 22 30
0.098789535 -0.18245006 0.029006826 33 43 63
0.09671669 -0.20419581 0.028611833 83 95 124
0.094208986 -0.2246576 0.029843314 127 121 126
1.3193175 0.79679507 -3.7263143 39 37 43
1.3687795 0.66961104 -3.9439068 40 38 40
1.4436367 0.52844757 -4.2524796 37 37 40
1.5175151 0.35588208 -4.570452 19 17 31
1.4012389 0.14077869 -4.2666516 14 16 49
1.200116 -0.044239063 -3.66559 17 17 16
1.0774335 -0.19973287 -3.3161774 25 24 23
0.4926179 -0.11617914 -1.3173077 84 40 22
0.4052522 -0.14366437 -1.0348451 129 109 91
0.30131757 -0.12749673 -0.67906934 206 194 187
0.27774256 -0.15752321 -0.6119844 222 203 182
0.25017485 -0.17562535 -0.5266649 106 95 86
0.21612747 -0.17360246 -0.4114408 95 82 71
0.19508168 -0.18123823 -0.34380752 79 55 43
0.19755301 -0.23255382 -0.37284574 82 72 62
0.18681444 -0.25644296 -0.34641418 103 88 74
0.18160933 -0.2943319 -0.3442328 104 90 73
0.19775978 -0.40849888 -0.4446309 73 54 41
0.29755378 -0.88280725 -0.97160435 52 37 26
0.26074445 -0.8583657 -0.8380414 81 59 43
0.12085084 -0.2577767 -0.12530077 110 97 95
0.111828506 -0.25470313 -0.093741864 105 100 103
0.104869805 -0.2584721 -0.07188193 111 105 110
0.09843958 -0.26123023 -0.051389437 118 114 120
0.08758577 -0.2154271 0.003588499 113 164 237
0.084973045 -0.24050468 0.0022352473 125 119 124
1.2002606 0.73638165 -3.9788368 34 36 43
1.2382387 0.5964679 -4.207493 23 27 31
1.2511957 0.42632467 -4.3528657 2 12 29
1.2039841 0.23059522 -4.2720428 0 63 235
1.1610458 0.035394527 -4.2079935 52 52 47
0.994986 -0.1324831 -3.6372385 20 13 13
0.5165636 -0.1165301 -1.7179395 71 33 18
0.37545475 -0.12635063 -1.159843 135 112 91
0.30370456 -0.13960059 -0.88060904 132 112 93
0.25114897 -0.14464794 -0.67351246 193 174 157
0.22937973 -0.1706332 -0.6008795 124 109 95
0.202564 -0.17973572 -0.49880338 85 76 68
0.18544069 -0.19684108 -0.43983665 86 75 66
0.1792234 -0.23479116 -0.43589288 85 76 64
0.16685313 -0.2553986 -0.397834 108 95 81
0.15966344 -0.28984374 -0.3880782 110 96 80
0.15285562 -0.32644704 -0.38103503 113 99 81
0.24986562 -0.883842 -1.0751696 42 26 20
0.21641716 -0.8588996 -0.92787147 75 57 40
0.18421355 -0.8067241 -0.7705578 86 64 46
0.15982933 -0.7742464 -0.65531 145 117 86
0.09515442 -0.30119976 -0.13671878 126 111 101
0.08589336 -0.27288097 -0.08415193 113 106 106
0.08018664 -0.273765 -0.061849333 115 108 107
0.07453658 -0.26506016 -0.034496162 121 114 116
0.069997124 -0.2667235 -0.017283816 122 117 116
1.0313852 0.7933722 -3.9740496 27 24 26
1.0248052 0.6440157 -4.0541234 28 29 30
1.0367756 0.49195927 -4.2263536 16 17 19
0.97614074 0.30390278 -4.0728264 45 43 37
0.9426869 0.12420583 -4.045091 36 34 26
0.8688254 -0.05229079 -3.8186274 57 55 39
0.78724194 -0.2106922 -3.541071 51 48 38
0.35524443 -0.115674525 -1.3708599 94 62 40
0.2801799 -0.13117266 -1.0177729 142 119 98
0.22725844 -0.13660547 -0.7647209 68 60 50
0.20442177 -0.16215345 -0.67293113 35 33 29
0.18454432 -0.18344899 -0.59232867 29 26 24
0.16664602 -0.19993673 -0.5177358 101 88 77
0.1563063 -0.23005262 -0.4900909 113 99 83
0.14689788 -0.2610773 -0.4676528 88 79 69
0.13747415 -0.29010874 -0.44364488 107 95 80
0.12981719 -0.3264468 -0.43370253 112 98 84
0.19316924 -0.848251 -1.1329571 59 41 26
0.17022984 -0.86977476 -1.0376493 34 14 6
0.14270255 -0.81768066 -0.8648233 168 141 113
0.12171846 -0.7860051 -0.73910624 151 126 98
0.10395954 -0.7516593 -0.62705594 147 118 89
0.09030075 -0.74730974 -0.5574295 170 143 113
0.07726212 -0.70644176 -0.46342063 147 129 110
0.06163302 -0.28609425 -0.072146766 114 107 107
0.057306938 -0.27933085 -0.046053976 119 112 111
1.5876092 0.44643295 -0.7984291 194 131 58
1.5882207 0.37707302 -0.7836252 175 117 56
1.5923626 0.3067081 -0.7707494 67 43 9
1.6190813 0.2366664 -0.7716812 197 158 118
1.4825006 0.15426534 -0.6705489 131 110 85
0.5160397 0.08249841 -0.06680052 86 69 56
0.47991163 0.06070466 -0.040049758 25 20 19
0.36082202 0.050388254 0.034667898 24 31 62
0.34278053 0.036650676 0.048651103 54 92 165
0.3412974 0.02106102 0.052964497 44 84 151
0.34360355 0.0042803865 0.055232953 45 85 154
0.34607375 -0.013187055 0.057551853 47 84 155
0.34829316 -0.031236706 0.0601507 39 81 149
0.34936804 -0.049461357 0.06348425 43 84 153
0.34898153 -0.06752229 0.06767117 50 93 163
0.34696704 -0.08507704 0.07273789 58 104 173
0.34523147 -0.10301056 0.07771776 63 112 185
0.34293425 -0.12081063 0.0830102 120 188 254
0.34091476 -0.13900392 0.08821967 219 255 255
0.34240493 -0.16029602 0.09197171 5 61 108
0.31782827 -0.15918915 0.10668321 97 125 213
0.29495504 -0.15673567 0.12006367 44 78 143
0.28625485 -0.16606863 0.12739943 31 48 85
0.27818942 -0.17528428 0.13432324 57 103 164
0.27119693 -0.18501645 0.14070724 32 40 64
0.26504022 -0.19519037 0.14667937 50 62 90
1.5846024 0.4247928 -0.87938744 190 155 112
1.5891311 0.35252008 -0.8675475 191 154 115
1.588178 0.27749598 -0.8514783 195 158 119
0.5400336 0.120008305 -0.11864649 43 37 32
0.5090024 0.094120584 -0.09258442 28 25 23
0.48587596 0.07068028 -0.07230826 23 19 16
0.36920547 0.05648797 0.008577753 67 63 55
0.33386552 0.043623917 0.034840286 105 162 234
0.32628492 0.029042922 0.04290541 58 96 170
0.32637832 0.013057816 0.046131093 45 87 156
0.32773024 -0.0037079826 0.048676386 45 87 158
0.3289889 -0.021003274 0.05139285 44 86 156
0.32987624 -0.03871376 0.054442905 42 84 155
0.33009356 -0.05664539 0.057986178 39 81 152
0.33000982 -0.07489338 0.061795738 36 78 150
0.3292695 -0.09319688 0.06605546 35 76 149
0.3278647 -0.111435026 0.070745796 34 75 149
0.32749555 -0.13076942 0.07496956 33 75 151
0.32723853 -0.15067093 0.079234995 38 78 157
0.3163288 -0.16148761 0.08875058 22 26 36
0.28591993 -0.15219319 0.10715987 172 177 206
0.27589348 -0.16022943 0.11551319 57 73 112
0.26764488 -0.16920933 0.1228726 21 25 43
0.2613455 -0.17973258 0.12924688 61 64 89
0.25562263 -0.19047244 0.13528042 55 61 80
0.2520151 -0.20369011 0.14041007 7 10 30
1.5667309 0.47254962 -0.97148544 180 139 99
1.5652982 0.39765328 -0.9561051 191 152 114
1.5580148 0.32025963 -0.935953 192 156 117
1.5587443 0.24268924 -0.921648 196 159 120
1.322551 0.15047511 -0.7306589 109 91 72
0.49692845 0.08183057 -0.11158483 6 4 9
0.4663486 0.05866945 -0.084710576 14 10 12
0.32783464 0.05040733 0.018528359 11 27 65
0.315119 0.036262117 0.030566767 48 89 161
0.31036124 0.021395823 0.03690277 48 89 162
0.3120612 0.004832714 0.038823936 48 89 162
0.31286293 -0.012039308 0.04146341 54 93 166
0.31309134 -0.029207397 0.044580292 44 87 161
0.3135604 -0.046971824 0.047634672 41 85 158
0.31210908 -0.064213656 0.051998425 40 83 156
0.31166553 -0.08236649 0.05579687 37 78 152
0.31131223 -0.10102455 0.05962578 36 76 152
0.3105637 -0.119855836 0.06377781 35 77 152
0.3107287 -0.13988811 0.067489244 36 77 154
0.3105479 -0.16019928 0.07150776 19 21 28
0.28226048 -0.153106 0.09091143 95 98 123
0.26692152 -0.15594262 0.10271168 31 48 87
0.25815472 -0.16440235 0.11076431 43 66 104
0.25097668 -0.17388672 0.11784694 25 37 70
0.24553777 -0.18498018 0.12396099 0 13 36
0.24006265 -0.19559132 0.1300094 54 100 162
1.5301955 0.44266194 -1.0406817 118 70 47
0.938295 0.25241816 -0.53003854 9 6 8
0.9337493 0.20432222 -0.51793456 10 5 6
0.9627304 0.15835072 -0.5332368 125 67 33
0.9616359 0.10710442 -0.52336293 118 61 28
0.75472385 0.060806155 -0.34840146 23 15 11
0.32621917 0.057084475 -0.0022345053 24 22 14
0.30685946 0.043082856 0.015832337 102 163 238
0.2979232 0.028838053 0.02553717 51 95 169
0.29721117 0.013045027 0.028882286 49 90 165
0.29842323 -0.003738952 0.0308498 52 93 169
0.2985696 -0.020699657 0.033707637 49 92 166
0.29877764 -0.038178016 0.036606506 46 89 163
0.2966023 -0.05487275 0.041289728 58 104 183
0.2957929 -0.072605416 0.04505365 43 86 161
0.2957587 -0.09128146 0.048358012 41 81 154
0.2945317 -0.109581254 0.052558184 38 79 154
0.29435167 -0.12914906 0.056136586 37 79 156
0.29545364 -0.15047798 0.058990296 34 76 143
0.2841961 -0.16005488 0.069747865 67 70 80
0.25801194 -0.15186219 0.08942333 71 111 174
0.24900222 -0.16011487 0.09813606 15 37 64
0.24134631 -0.16905077 0.10587707 29 45 82
0.23509707 -0.17907919 0.112675525 13 26 47
0.2301402 -0.19040555 0.11865964 30 40 67
0.22591105 -0.2025013 0.12419195 30 43 77
1.4292217 0.4712277 -1.0684196 199 197 177
0.8912786 0.2743018 -0.5604043 2 1 0
0.87378657 0.22464402 -0.53705657 28 13 11
0.87288004 0.17768705 -0.52883947 109 66 52
0.8722716 0.12962909 -0.5207129 166 97 71
0.7278743 0.08063247 -0.38495877 25 15 13
0.6293161 0.045106955 -0.29197127 92 70 64
0.30011016 0.049885 -0.00086073205 0 0 8
0.290229 0.035356946 0.010193249 49 91 166
0.2848154 0.020535186 0.017332816 50 91 168
0.2855099 0.0040068943 0.019326469 51 93 170
0.2861201 -0.013054155 0.021479031 52 94 173
0.28597352 -0.030339837 0.024337959 48 92 168
0.2835322 -0.046872728 0.029112538 62 111 191
0.2819403 -0.06409326 0.03324258 56 102 182
0.28173804 -0.08258729 0.036341637 49 90 165
0.27968046 -0.10017913 0.04094317 42 83 158
0.27899185 -0.11921099 0.04455834 39 81 154
0.2796628 -0.14004259 0.047252297 41 84 160
0.27617282 -0.15732336 0.053074636 33 35 39
0.2526153 -0.15192536 0.07310785 100 100 118
0.24024831 -0.15647838 0.084790915 77 94 135
0.23193705 -0.164641 0.093448125 50 59 85
0.22504713 -0.1738007 0.101002604 70 73 97
0.21896972 -0.18341988 0.10790931 51 55 70
0.21405739 -0.19430321 0.11398268 4 12 28
0.86705464 0.30162275 -0.61235636 2 1 2
0.83856314 0.24858174 -0.57721364 1 0 1
0.8294666 0.20056184 -0.561695 128 73 48
0.817198 0.15207514 -0.5430157 47 25 25
0.7790524 0.103049226 -0.4990058 74 43 37
0.65070516 0.06070508 -0.36788192 129 80 72
0.29463974 0.056832477 -0.019822536 8 7 7
0.281417 0.04225179 -0.004900762 106 167 240
0.2746376 0.027484464 0.0037580822 51 93 172
0.27299613 0.011609113 0.007555486 52 95 173
0.27403003 -0.005546525 0.008918709 53 97 175
0.27466482 -0.023191972 0.010739206 51 95 173
0.27314413 -0.040319365 0.014591846 67 118 202
0.27118823 -0.057500664 0.01887673 62 110 191
0.27123627 -0.076356925 0.021437354 55 101 180
0.2671057 -0.092540525 0.027706759 51 94 172
0.2644708 -0.1099491 0.032685783 43 84 159
0.2647906 -0.13040875 0.035202857 43 83 159
0.2660713 -0.15264915 0.037028395 0 2 14
0.24816202 -0.15351573 0.054627832 90 90 109
0.23187293 -0.15354608 0.07053039 -2 16 39
0.22296913 -0.1610172 0.0802537 30 43 74
0.21527301 -0.16905096 0.08887616 5 8 23
0.20845029 -0.17745727 0.09669763 28 35 60
0.20303819 -0.18740983 0.1033562 68 121 192
0.19729134 -0.19616777 0.11017625 57 57 66
1.3474678 0.48748013 -1.228562 69 58 47
1.2897798 0.39538658 -1.15576 34 24 20
0.80958027 0.22753748 -0.6193909 0 0 3
0.77870655 0.17545564 -0.58010334 62 32 23
0.7467635 0.1259057 -0.5399593 40 20 16
0.6618121 0.079423554 -0.44311836 24 13 14
0.59524524 0.04188817 -0.36710557 14 14 17
0.27154925 0.04946221 -0.019587247 0 23 67
0.26685697 0.03399225 -0.012737538 51 93 170
0.2625772 0.018589482 -0.0063397004 52 95 174
0.2623279 0.0018270802 -0.004121708 54 97 177
0.26138505 -0.015131936 -0.0011343829 73 119 199
0.2591134 -0.031801008 0.003249408 79 135 219
0.2573817 -0.04901681 0.007115628 78 135 221
0.25740734 -0.06779658 0.009272332 57 103 183
0.2552618 -0.08549741 0.01364037 53 97 175
0.2510021 -0.10158548 0.02009642 53 94 171
0.2505104 -0.12129817 0.022918416 46 85 159
0.25219667 -0.14404134 0.023748714 41 80 150
0.24378915 -0.15578793 0.034164112 11 17 24
0.22286202 -0.15008442 0.05602495 21 28 36
0.21443273 -0.15827394 0.06605003 29 40 65
0.20682219 -0.1665265 0.07520127 77 114 158
0.19911124 -0.17353836 0.084316246 64 93 132
0.19213593 -0.18070787 0.09265775 37 43 62
0.18540889 -0.18731551 0.100666724 87 86 97
1.2440434 0.43914375 -1.2384534 47 36 27
1.2288542 0.35902655 -1.2130541 69 62 52
1.2344586 0.28208512 -1.2126813 13 20 31
1.2309713 0.20106271 -1.2011197 17 26 30
0.65091795 0.100361384 -0.5018767 14 12 20
0.6279326 0.057625443 -0.47062334 10 9 18
0.26362047 0.05658173 -0.037143588 9 10 16
0.25509137 0.04147581 -0.02561528 107 168 243
0.2532954 0.025329811 -0.022001512 54 94 173
0.2514319 0.0089372955 -0.018284883 53 95 174
0.25073293 -0.008241135 -0.015881613 55 97 176
0.24939041 -0.025572259 -0.012698868 52 96 174
0.24685128 -0.042563356 -0.008123716 69 118 202
0.24647759 -0.06129918 -0.005964949 60 108 187
0.24300244 -0.07814755 -0.00028936847 54 101 178
0.23886618 -0.094428435 0.00612072 50 92 169
0.23731145 -0.11324368 0.009691742 45 84 158
0.23810296 -0.13517341 0.010756652 44 81 154
0.23644808 -0.15508373 0.01454696 32 36 43
0.21678662 -0.15093456 0.037556536 98 97 123
0.20532833 -0.15506308 0.051565014 47 62 85
0.1974152 -0.1628667 0.061692428 82 90 117
0.19044511 -0.17108572 0.070736036 70 73 87
0.18318938 -0.17770919 0.07997344 66 72 88
0.17658699 -0.18445562 0.08844489 37 41 56
0.17103665 -0.19241844 0.095776096 16 16 21
1.1897457 0.48167154 -1.3139204 67 58 46
1.1708773 0.39999843 -1.2838761 42 32 25
1.1702569 0.32237303 -1.2781482 58 56 54
1.168888 0.24219471 -1.2712722 -1 59 255
1.1673942 0.15954943 -1.2640753 7 15 23
0.6059892 0.07810139 -0.51868796 16 12 14
0.40257096 0.051446706 -0.24878666 25 28 28
0.24365258 0.048937496 -0.039087385 27 43 78
0.24195321 0.03272101 -0.035821017 59 100 169
0.24035588 0.01616325 -0.032667622 65 102 176
0.23890132 -0.00079796195 -0.029676966 53 96 174
0.23706807 -0.017949583 -0.02617495 53 95 172
0.235871 -0.0358327 -0.023465466 51 94 169
0.23469624 -0.054217473 -0.020753687 62 110 189
0.23294596 -0.07264556 -0.017280353 54 102 179
0.2274666 -0.08800472 -0.009084145 43 86 159
0.22566314 -0.106826745 -0.005515729 42 83 156
0.2254383 -0.12794524 -0.003883543 51 86 159
0.22677374 -0.15195432 -0.0041258396 1 10 26
0.21017876 -0.15175901 0.017742967 90 92 111
0.19564952 -0.15134552 0.036874197 64 103 151
0.18856443 -0.1605078 0.04679571 90 140 210
0.18060662 -0.1669551 0.057696205 28 38 57
0.17325298 -0.17316243 0.067784905 35 45 68
0.16719699 -0.1808229 0.07625449 45 83 140
0.16182551 -0.18906562 0.08385836 11 16 20
1.114374 0.44211817 -1.358557 26 21 22
1.1044786 0.36234942 -1.3415867 22 21 26
1.1015313 0.28270024 -1.3348103 10 12 17
1.0978239 0.20062374 -1.3268445 0 3 13
1.0960555 0.11626472 -1.3216524 9 19 24
0.5453482 0.056736786 -0.51212656 16 13 17
0.232892 0.056365494 -0.05385292 8 8 22
0.22962335 0.04039394 -0.04856697 116 181 247
0.22887677 0.023577152 -0.04695396 56 95 169
0.22649984 0.0069073485 -0.04295433 58 100 173
0.22390321 -0.00988398 -0.038628746 118 184 250
0.22272532 -0.027759563 -0.03635053 52 95 168
0.22204268 -0.04652247 -0.034771364 48 91 163
0.22072394 -0.06542108 -0.032255072 75 133 238
0.21740094 -0.08295633 -0.026841227 43 87 152
0.21348776 -0.09995651 -0.020578293 68 111 182
0.21326336 -0.12140392 -0.019588506 48 83 156
0.21306716 -0.1438496 -0.018609304 38 77 149
0.20309702 -0.15272382 -0.0037132972 13 15 23
0.18783158 -0.15108411 0.018625163 109 114 132
0.1797592 -0.15879272 0.03070196 87 138 203
0.17212366 -0.16584809 0.04211795 32 42 68
0.1641492 -0.17069694 0.053963013 32 39 63
0.15764007 -0.1772239 0.06371062 11 18 33
0.1524182 -0.18568702 0.07162999 102 105 123
0.14789282 -0.1951562 0.078558795 39 45 62
1.0438409 0.47960272 -1.4127644 93 60 39
1.0371553 0.4017717 -1.4023426 84 52 34
1.0350182 0.32329664 -1.3993782 80 48 30
1.0301995 0.2417892 -1.3920405 78 46 31
1.0182387 0.15743448 -1.37302 70 39 31
0.98960686 0.07208418 -1.3266906 70 37 25
0.7910237 0.005885383 -1.0017619 51 31 27
0.21775308 0.04799106 -0.062160257 44 72 111
0.21640202 0.03134142 -0.0600605 82 149 218
0.21465969 0.014401697 -0.05732161 250 253 253
0.21226734 -0.002598813 -0.053518087 47 93 162
0.21033402 -0.02015516 -0.05047047 80 138 229
0.20910554 -0.03863021 -0.048584055 81 137 182
0.20799257 -0.057804372 -0.046891686 98 164 244
0.20591949 -0.07669796 -0.043624263 124 219 247
0.20254155 -0.09458012 -0.03821185 111 171 254
0.20036401 -0.114111125 -0.034777604 38 76 146
0.19942248 -0.13589083 -0.033384014 42 78 149
0.19599177 -0.15466315 -0.027891228 39 41 46
0.17991608 -0.15154004 -0.0015295405 102 99 127
0.1708626 -0.15764424 0.013262961 40 57 98
0.16338778 -0.16505651 0.025459837 85 92 116
0.15500395 -0.16880107 0.039171256 84 89 106
0.14797708 -0.17385638 0.050650273 82 88 105
0.14205931 -0.1802502 0.060302857 39 46 73
0.13694684 -0.18770146 0.068628706 9 22 35
2.3907895 0.9932912 -4.049236 26 23 16
2.713459 0.89734966 -4.6479692 40 38 34
2.8391585 0.6945747 -4.8896585 49 45 41
2.850751 0.444886 -4.9237432 56 53 49
2.7887683 0.17978035 -4.8232093 45 50 49
2.7273395 -0.084589645 -4.7236576 16 14 8
0.20699795 0.055454057 -0.07812326 9 13 35
0.20435879 0.0390056 -0.07410614 67 114 177
0.20241794 0.022086851 -0.07139822 56 101 165
0.19993864 0.005056147 -0.067705035 60 109 168
0.19768521 -0.012391555 -0.06444886 52 99 162
0.19656347 -0.031043962 -0.0633369 120 180 221
0.1952 -0.05017055 -0.061804306 51 98 169
0.19308214 -0.06919499 -0.058878154 47 87 151
0.19053517 -0.088215396 -0.055162054 56 110 162
0.18817823 -0.10789678 -0.05182941 45 83 152
0.18624476 -0.12871997 -0.0493344 45 76 149
0.18374786 -0.14929575 -0.045789883 48 66 111
0.16899657 -0.14753866 -0.018552223 89 93 109
0.16085461 -0.15516333 -0.0039572613 37 65 120
0.15424402 -0.16439013 0.0077375425 63 100 152
0.14617738 -0.16858919 0.022368792 7 15 30
0.1387369 -0.17228161 0.035873514 7 18 34
0.1325819 -0.17769633 0.04692452 66 90 138
0.12721574 -0.18403806 0.056476478 36 58 92
0.12197481 -0.1894482 0.06584551 38 58 88
2.0670686 1.0208228 -3.8885365 51 44 35
2.3414884 0.9468271 -4.467234 52 49 44
2.67176 0.83071023 -5.1665196 30 31 32
2.7454886 0.59334385 -5.3445606 25 24 27
2.7701788 0.32533273 -5.42374 44 39 38
2.5613081 0.04309299 -5.0183945 33 28 23
2.2474146 -0.19380724 -4.3898106 186 195 178
0.19439723 0.046216827 -0.09292848 60 83 114
0.18873875 0.030321974 -0.08280303 109 168 220
0.1851313 0.013938114 -0.07699616 83 133 175
0.18296625 -0.0033395528 -0.07428341 125 191 246
0.18228194 -0.02215148 -0.07481101 128 192 247
0.18155205 -0.041800465 -0.07533061 56 89 108
0.17976299 -0.061255135 -0.073626086 56 81 104
0.1772813 -0.080521844 -0.07046082 132 192 220
0.17494476 -0.100479364 -0.06766924 192 257 259
0.17341933 -0.12232431 -0.06676124 46 73 109
0.17095701 -0.14344707 -0.06382884 52 75 112
0.1607429 -0.14957882 -0.043211088 39 41 44
0.14903414 -0.1495279 -0.018841872 158 155 160
0.14369634 -0.16151069 -0.008977887 -4 11 26
0.13696742 -0.16872767 0.004275176 7 13 22
0.12949193 -0.1718437 0.019507175 5 10 17
0.12298876 -0.17570913 0.032638147 8 13 24
0.117380954 -0.18069674 0.04378966 97 102 119
0.112970844 -0.18871896 0.05213413 72 112 169
2.023061 0.99094343 -4.3178883 61 57 47
2.3544164 0.91823256 -5.116082 40 38 42
2.464025 0.71070147 -5.4108567 26 28 30
2.518647 0.45946503 -5.5825195 23 24 27
2.4216413 0.17657647 -5.3998084 31 25 22
2.2100425 -0.088874325 -4.9423485 12 10 5
0.68487895 -0.04848939 -1.3177274 34 38 37
0.19433223 0.03204469 -0.14060389 69 50 49
0.2279963 -0.0046658637 -0.22660942 113 107 106
0.24235712 -0.04050453 -0.26667953 66 64 64
0.22678433 -0.059109062 -0.23285627 82 79 78
0.18545021 -0.05004839 -0.13328911 70 68 68
0.1697832 -0.05712509 -0.09731095 36 37 40
0.16872233 -0.07910071 -0.09847638 49 48 55
0.16701059 -0.10126772 -0.09812995 45 48 54
0.16335192 -0.12108496 -0.0927715 49 52 62
0.15994868 -0.14163387 -0.08814153 51 54 70
0.15424718 -0.15747821 -0.07727162 26 25 28
0.14002766 -0.15135022 -0.042514622 99 96 106
0.13388638 -0.16175792 -0.029690655 109 104 119
0.12650408 -0.16679877 -0.013023573 105 103 121
0.119973235 -0.17217597 0.001567366 81 83 97
0.11313533 -0.17406361 0.017471336 86 93 108
0.10724115 -0.17703223 0.030955594 3 16 25
0.1030693 -0.18558714 0.03941833 42 74 122
0.09879518 -0.19244988 0.04840718 119 120 136
1.7411649 1.0277537 -4.1788263 50 44 37
2.0630567 0.99740654 -5.0657883 37 35 37
2.1366549 0.80156523 -5.315138 36 38 44
2.200009 0.57423204 -5.5442586 29 32 41
2.1506822 0.3057976 -5.475638 73 96 112
2.051248 0.0360005 -5.270448 27 24 20
1.4973406 -0.15014261 -3.8029158 23 17 11
1.2612537 -0.28911567 -3.1921198 70 38 22
0.64526576 -0.19371673 -1.4855878 90 42 17
0.37477645 -0.12346109 -0.7292349 153 135 117
0.3219128 -0.13896507 -0.5886197 142 123 102
0.28111047 -0.15054592 -0.47999218 71 63 59
0.24473153 -0.15468639 -0.3816169 44 34 27
0.22011118 -0.16316232 -0.31643713 76 61 49
0.2093524 -0.1862571 -0.292733 62 48 39
0.20999873 -0.22885521 -0.3049966 101 87 69
0.20874555 -0.2712072 -0.3120097 105 89 73
0.20656574 -0.31452712 -0.31672943 107 90 75
0.36837012 -0.8198588 -0.883348 65 42 31
0.13912846 -0.21174806 -0.107146725 76 61 53
0.11978672 -0.17984998 -0.04643982 103 97 100
0.113215506 -0.18594663 -0.029988153 107 102 107
0.107244104 -0.19199862 -0.015164339 111 108 113
0.099363774 -0.1858734 0.007876051 91 93 104
0.09433404 -0.19042085 0.020497771 25 31 38
0.089911126 -0.19628339 0.031137496 99 102 119
1.804558 1.0744774 -5.044192 36 35 38
1.8498611 0.887058 -5.253593 49 52 52
1.9157437 0.6822659 -5.534639 30 32 36
1.8987473 0.43017343 -5.5677814 15 15 20
1.6768845 0.15730065 -4.9548287 39 49 76
1.3288784 -0.052799188 -3.9178724 23 24 16
1.1813956 -0.220903 -3.5058103 29 29 21
0.60853684 -0.16559516 -1.6598707 74 33 10
0.4730543 -0.18547648 -1.2347217 133 113 97
0.3001037 -0.12811442 -0.663329 209 191 173
0.26650634 -0.14809334 -0.5631133 220 201 174
0.2289326 -0.15181562 -0.44458485 100 88 75
0.20044507 -0.15480562 -0.35477754 89 77 68
0.18524164 -0.17025983 -0.31164995 73 55 46
0.18881914 -0.2203265 -0.34040475 80 72 58
0.18439393 -0.25743228 -0.3391492 106 89 74
0.18098582 -0.29920378 -0.34275368 108 91 74
0.33536473 -0.85507613 -1.0276413 72 51 35
0.3058395 -0.87951237 -0.9419553 59 38 26
0.2691193 -0.8596665 -0.81798303 81 57 40
0.23049638 -0.80546016 -0.6760386 118 95 77
0.098720476 -0.20669833 -0.048369266 108 101 101
0.09226077 -0.2072399 -0.027957693 113 106 107
0.08729998 -0.21367253 -0.014367042 118 113 112
0.08235201 -0.21723019 0.00017882157 120 116 123
0.07779672 -0.22068883 0.013506799 125 118 119
1.5838906 1.15919 -5.0895786 13 12 13
1.6071326 0.9761743 -5.264976 24 28 35
1.60417 0.7619625 -5.356035 17 21 27
1.5476986 0.518009 -5.2586646 3 14 43
1.263607 0.24463719 -4.3133736 -1 48 219
1.2119899 0.041059002 -4.215108 45 41 39
1.0558474 -0.1372949 -3.7089746 20 16 12
0.6256879 -0.15812977 -2.0899677 73 35 12
0.4340482 -0.16177846 -1.3659967 136 113 90
0.32012594 -0.15411873 -0.9309316 134 114 97
0.246228 -0.14151809 -0.6450739 197 178 155
0.21435268 -0.1530817 -0.5298877 124 109 95
0.18512487 -0.15525846 -0.42024535 87 75 64
0.17078482 -0.17357834 -0.37468857 96 83 68
0.1683987 -0.21551712 -0.3856768 90 81 69
0.1601756 -0.24456306 -0.36840552 111 97 79
0.1565925 -0.2880372 -0.37559402 115 99 81
0.15119837 -0.32824245 -0.37436378 115 98 83
0.25481904 -0.86598116 -1.023511 51 33 24
0.22496131 -0.8631088 -0.90907246 99 78 56
0.1950445 -0.83516824 -0.78244114 80 56 37
0.16790326 -0.7951754 -0.6605658 158 126 96
0.14631651 -0.7668774 -0.56530863 139 111 81
0.07751521 -0.2333606 -0.050033227 122 110 103
0.07227606 -0.23324604 -0.030138608 120 113 110
0.067906894 -0.23826382 -0.015988953 124 117 116
1.350607 1.0389283 -5.1579833 24 23 22
1.345044 0.8408853 -5.2623715 31 32 33
1.3394722 0.6288346 -5.375915 18 19 20
1.1048563 0.34424245 -4.4826007 29 29 28
1.0462959 0.13915628 -4.3476233 21 18 18
0.9289426 -0.051312823 -3.932379 35 32 23
0.8434456 -0.22043328 -3.6497817 48 44 34
0.4170458 -0.15205172 -1.6418302 109 79 62
0.3243237 -0.1710416 -1.2274206 144 119 94
0.23730908 -0.15119605 -0.8137945 70 61 53
0.2160242 -0.18423523 -0.73749065 37 35 28
0.17405704 -0.16858563 -0.5340088 31 29 23
0.15499894 -0.17971177 -0.45357245 106 92 74
0.14560705 -0.2078874 -0.42882913 117 101 79
0.13719483 -0.23717351 -0.40932494 103 94 82
0.13180102 -0.27756214 -0.4110049 112 98 80
0.12706938 -0.32423303 -0.4198572 116 100 84
0.19800681 -0.8309457 -1.0790579 49 31 20
0.17434947 -0.8453625 -0.9796075 63 45 32
0.15085441 -0.8367597 -0.86579365 175 147 116
0.12962781 -0.81779504 -0.75562155 151 125 94
0.10970815 -0.77549577 -0.63614905 148 116 84
0.09424135 -0.7533061 -0.5503769 172 142 111
0.08118141 -0.73659694 -0.47928298 171 141 110
0.068679206 -0.68132365 -0.38544253 143 125 106
0.052103244 -0.2578772 -0.031169692 126 117 115
1.090441 1.0685458 -4.9206033 39 35 25
1.0550923 0.8694732 -4.8983135 53 51 44
1.0117899 0.6620388 -4.837652 52 49 38
0.94260037 0.44319597 -4.637629 49 46 36
0.86076415 0.2322051 -4.3572297 50 48 42
0.79583585 0.03824997 -4.1590776 53 50 37
0.7139609 -0.13810426 -3.846742 46 43 30
0.3950059 -0.13945101 -2.0021963 65 30 11
0.2868473 -0.15400971 -1.3896171 147 122 99
0.20707938 -0.13936867 -0.9145986 33 30 26
0.18652314 -0.17501765 -0.8282804 39 34 33
0.17034885 -0.21135099 -0.7679475 14 13 15
0.13560005 -0.18539664 -0.54309386 31 29 29
0.12316896 -0.20615639 -0.49016345 112 98 83
0.11393075 -0.23383121 -0.4620415 103 92 76
0.106172256 -0.2664906 -0.44704658 112 97 80
0.10037054 -0.31260365 -0.45569354 113 99 81
0.13674805 -0.75468034 -1.070976 60 43 29
0.121818945 -0.8237369 -1.0478098 58 38 22
0.10269635 -0.8259194 -0.93914664 148 120 93
0.08535617 -0.8129014 -0.8268805 162 130 102
0.07024959 -0.79066557 -0.71910036 149 115 82
0.057405632 -0.76419353 -0.6205349 105 79 59
0.04661724 -0.75619656 -0.5507809 133 110 84
0.03703898 -0.75685906 -0.49595854 176 149 115
0.028440425 -0.7552977 -0.44476917 148 79 62
1.526243 0.43502355 -0.8637523 192 154 114
1.5270452 0.36602256 -0.85057867 193 154 120
1.5230787 0.2947627 -0.8337663 193 157 116
1.5201873 0.22244084 -0.8174622 196 159 123
0.9074 0.12083617 -0.38737953 13 12 14
0.8814209 0.076770894 -0.36124647 16 11 12
0.7250567 0.041732732 -0.24969225 20 19 19
0.3531605 0.045746163 -0.00172791 11 21 51
0.31455636 0.034724176 0.026284529 47 86 156
0.31491572 0.019052256 0.029158095 47 87 154
0.3143083 0.003235896 0.032707047 46 85 155
0.31383878 -0.012939593 0.03623515 168 202 243
0.31380132 -0.029625691 0.03957563 43 85 156
0.31372485 -0.046700217 0.04301947 41 82 153
0.3119339 -0.06330665 0.047517058 47 86 162
0.31031138 -0.08022353 0.051963698 36 78 149
0.30914822 -0.09768009 0.056210283 37 76 150
0.30862978 -0.115910515 0.0601794 31 74 150
0.30967057 -0.13577586 0.063430406 31 74 149
0.31121793 -0.15672658 0.06655822 34 69 135
0.30129105 -0.16781047 0.075400606 76 80 83
0.28575394 -0.17235002 0.08669539 56 78 121
0.28126895 -0.18696234 0.09259883 50 65 101
0.2753626 -0.19976756 0.09909393 4 9 25
0.2701916 -0.21308126 0.10519821 28 34 59
0.2618178 -0.22186767 0.112545304 78 80 100
1.4729017 0.40431896 -0.90820694 165 122 85
1.4692776 0.33325103 -0.89241546 146 119 85
1.4696455 0.2614401 -0.87940824 193 156 112
1.4760665 0.18838386 -0.870601 195 158 116
1.4828557 0.112945504 -0.86162287 177 145 108
1.1619933 0.04527705 -0.6142774 37 28 17
0.37541968 0.051157605 -0.039682124 24 21 17
0.31060582 0.041129865 0.009608181 99 161 233
0.30316678 0.026615696 0.017736102 50 96 165
0.30360678 0.010541082 0.020385966 50 91 162
0.30391034 -0.005944081 0.02321158 47 89 160
0.30314115 -0.022474363 0.026830664 44 87 160
0.30200332 -0.03917606 0.030751232 45 86 159
0.30075243 -0.056120582 0.03479945 50 97 171
0.29908016 -0.073119015 0.039166052 50 93 169
0.29716784 -0.09021349 0.043726083 41 78 153
0.29647228 -0.10840826 0.047598988 34 77 151
0.2971111 -0.12807077 0.05076667 36 77 152
0.29837215 -0.14890169 0.05369491 33 77 155
0.29300866 -0.16424927 0.060457878 32 34 38
0.27767006 -0.16915712 0.072591305 99 99 118
0.27004603 -0.18066885 0.08029956 61 71 100
0.264108 -0.1934916 0.08701622 72 80 106
0.25801754 -0.2056928 0.09372948 47 55 75
0.25272265 -0.21850203 0.09997292 13 20 35
0.24641618 -0.22949173 0.10662032 58 110 167
1.4093864 0.4405496 -0.9586656 126 76 43
0.9298421 0.2698022 -0.54538083 5 2 2
0.90365237 0.21915655 -0.51580083 7 4 2
0.9085193 0.17345798 -0.5119497 17 8 8
1.3318268 0.14766555 -0.84682643 123 66 28
1.3222295 0.07534124 -0.82686687 113 57 33
0.8096948 0.03311789 -0.4089435 23 22 23
0.31957597 0.04635733 -0.018392812 0 0 4
0.2920599 0.03408441 0.0057411897 48 89 161
0.29262516 0.017973213 0.008021049 46 89 162
0.29209396 0.0017037409 0.011206469 48 91 163
0.2914821 -0.01490562 0.014514226 50 92 167
0.29054433 -0.031746782 0.01812244 45 89 164
0.2891925 -0.04872357 0.022085555 56 105 182
0.28801504 -0.06610144 0.025976885 55 99 177
0.2858135 -0.083154805 0.030633952 73 122 203
0.28430894 -0.100912236 0.034851875 39 79 155
0.28454462 -0.12037593 0.03796453 37 78 153
0.285115 -0.14073826 0.04096136 35 80 156
0.28432128 -0.1604789 0.044946 1 2 17
0.27020478 -0.16681853 0.05733474 89 92 106
0.25866163 -0.1742757 0.06785067 33 58 98
0.25208053 -0.18636265 0.07517526 48 85 136
0.24576896 -0.19823308 0.082247056 29 43 83
0.24065353 -0.21123748 0.08855257 70 124 194
0.2369997 -0.22609901 0.09400178 33 45 76
0.89171726 0.29455858 -0.5817024 5 3 1
0.86431956 0.24305403 -0.54976594 2 1 1
0.8500311 0.19523963 -0.5299109 143 86 63
0.84896123 0.14897378 -0.5219063 65 35 29
0.8539339 0.1017907 -0.51907086 149 84 69
0.8640683 0.052599717 -0.52046394 32 19 13
0.33481613 0.052058402 -0.055371888 4 3 4
0.28307852 0.041270588 -0.008267192 103 164 239
0.28190374 0.025404923 -0.0048124124 53 94 169
0.28124693 0.009098852 -0.0017454795 49 92 167
0.2800889 -0.007402534 0.0017916514 50 93 169
0.27918115 -0.024330353 0.0051739584 49 91 168
0.27781832 -0.04140098 0.008977967 62 108 189
0.2761685 -0.058625687 0.013057621 58 106 187
0.27505 -0.07648399 0.016767206 56 102 181
0.27270886 -0.09383815 0.021474078 50 94 170
0.2713495 -0.11219117 0.025470829 40 81 156
0.2713084 -0.13209905 0.028546747 41 82 156
0.27237445 -0.15371427 0.030910648 40 77 153
0.26281196 -0.164835 0.041010454 18 20 29
0.24785832 -0.16864404 0.054730557 11 21 34
0.24057578 -0.1799375 0.06285355 32 50 84
0.23387113 -0.19127262 0.07047515 27 41 67
0.22754726 -0.20250058 0.077745855 23 37 67
0.22287086 -0.21568204 0.08386735 39 39 53
0.21825439 -0.22867386 0.08990722 6 15 58
1.3680003 0.46898603 -1.1345077 96 86 57
0.8449137 0.2715668 -0.603434 2 1 2
0.82912004 0.22224694 -0.581598 49 28 26
0.8203735 0.174374 -0.56675434 87 55 45
0.81323075 0.12637717 -0.5534415 155 93 73
