ply
format ascii 1.0
element vertex 1083
property float x
property float y
property float z
property uchar red
property uchar green
property uchar blue
element face 0
property list uchar int vertex_indices
end_header
0.840544 0.053683933 -0.060600355 129 97 67
0.837728 0.017443903 -0.05520285 162 120 85
0.83492726 -0.019455537 -0.04976052 145 104 67
0.8324774 -0.057171684 -0.044529334 134 96 64
0.8347668 -0.0977815 -0.04285417 180 157 122
0.8344393 -0.13854693 -0.039063655 106 90 70
0.8300372 -0.17803484 -0.03211125 141 104 67
0.8191499 -0.213649 -0.020285416 118 94 68
0.8226539 -0.25985828 -0.019101163 180 153 117
0.8743023 -0.3493114 -0.052842665 163 125 95
1.254863 -0.76079607 -0.32288697 160 132 100
1.2383612 -0.83180064 -0.3034895 151 123 92
1.1854029 -0.86121756 -0.2584102 184 161 128
1.1312685 -0.88174444 -0.21315563 165 139 106
1.0861884 -0.9063006 -0.17482436 157 128 101
1.041631 -0.925039 -0.13741636 163 135 105
1.0050632 -0.94936097 -0.10594218 151 122 91
1.870906 0.7110382 -1.0742862 87 74 49
1.8218877 0.60664755 -1.0234864 191 168 132
1.812462 0.5154242 -1.0089096 205 179 147
1.5847403 0.38197637 -0.79666716 186 137 75
0.84890336 0.2101455 -0.12837772 163 130 94
0.8539118 0.17577927 -0.13052484 133 97 65
0.850724 0.1398091 -0.12524901 137 95 64
0.84766155 0.10323436 -0.12004422 136 94 64
0.8445973 0.066020936 -0.114794694 136 94 61
0.8427259 0.027890807 -0.11054766 141 97 65
0.8372828 -0.010100524 -0.10312262 144 101 68
0.8332304 -0.048961986 -0.0968798 137 98 64
0.83657706 -0.091651425 -0.09698139 164 140 107
0.83382887 -0.1330161 -0.09173338 134 118 99
0.8202352 -0.16879165 -0.07718432 120 100 79
0.7752358 -0.18220116 -0.03611961 128 107 80
0.769931 -0.21974844 -0.028848011 140 119 93
0.8377852 -0.32078388 -0.08257436 160 132 100
1.0699724 -0.59311545 -0.27137852 159 131 99
1.1979699 -0.8025583 -0.37145168 146 112 83
1.1481416 -0.83517355 -0.32477963 123 92 69
1.1021776 -0.86547273 -0.28171274 151 120 91
1.0552778 -0.88776124 -0.23835213 168 138 107
1.015914 -0.91387105 -0.20145832 163 131 99
0.78648525 -0.6310961 -0.015821766 180 134 83
0.6379198 -0.43481588 0.103496335 188 137 78
1.8054568 0.7509051 -1.1530914 191 164 126
1.7860065 0.65606177 -1.1293906 193 167 133
1.7561518 0.558147 -1.0952424 198 170 138
1.6079379 0.43482244 -0.9426924 234 175 86
1.6351955 0.35608602 -0.9660007 204 174 135
1.6199466 0.2673212 -0.946745 209 176 136
1.6043969 0.17805372 -0.927168 210 179 139
1.6093452 0.08746884 -0.92782855 212 181 142
1.6183314 -0.0069970046 -0.93230647 212 184 144
0.939912 0.022396265 -0.26183498 140 101 61
0.9012431 -0.015919898 -0.22174728 141 98 58
0.8679669 -0.051540587 -0.18712631 148 104 64
0.8499852 -0.08972861 -0.16753143 168 140 108
0.86435664 -0.14273703 -0.1792827 126 106 81
0.8183093 -0.16402379 -0.13268515 131 116 94
0.7724484 -0.17885941 -0.086574204 132 123 103
0.70023495 -0.16645926 -0.015640592 133 107 75
0.6933725 -0.19850288 -0.007344866 129 104 76
0.70182973 -0.24534388 -0.0135279065 140 110 80
0.9895899 -0.59385186 -0.28218913 130 65 49
0.74123204 -0.37499356 -0.046480443 144 101 65
0.61966085 -0.2671235 0.06886431 189 137 72
0.60796905 -0.28706816 0.08137634 197 141 79
0.5993081 -0.3102483 0.091038354 195 138 76
0.58992004 -0.33153716 0.10133178 187 130 74
0.58145946 -0.35354018 0.1107402 164 114 60
1.6050797 0.65060097 -1.0788283 213 170 113
1.6127192 0.57227445 -1.0853444 205 165 113
1.6232013 0.49137068 -1.0949204 197 163 121
1.4850489 0.37699804 -0.940474 105 88 67
1.5594988 0.30669513 -1.0205495 206 176 137
1.5423884 0.21790603 -0.99963653 208 178 139
1.5277781 0.1288385 -0.98146236 208 180 139
1.1553674 0.06929506 -0.5710778 27 24 24
1.1173657 0.010075742 -0.5279303 151 121 91
0.87610036 0.0034997503 -0.26282912 182 142 102
0.8508943 -0.03527366 -0.23422201 230 181 128
0.8370858 -0.07599141 -0.21808448 225 171 114
0.87625194 -0.1420024 -0.25951585 157 126 91
0.8753772 -0.1933451 -0.25732738 130 116 94
0.7574168 -0.16710386 -0.12841758 139 124 100
0.67070097 -0.14411993 -0.033740778 145 123 95
0.6536117 -0.16620103 -0.01444627 168 129 83
0.6373335 -0.18689713 0.003924538 191 136 76
0.62268543 -0.20723699 0.020496614 189 134 76
0.61354357 -0.23229122 0.031134872 200 140 75
0.6049231 -0.25731975 0.041199893 184 129 66
0.5959578 -0.28122517 0.051616825 163 116 68
0.58814305 -0.30617517 0.060795195 137 99 55
0.58366597 -0.336283 0.06643166 135 98 60
0.5801667 -0.36856866 0.07104651 131 96 57
0.5742469 -0.39676532 0.07822161 127 92 55
1.4644755 0.65104336 -1.0502937 184 158 124
1.4708948 0.57909566 -1.0582114 185 158 126
1.4725671 0.502577 -1.0603563 187 162 126
1.4718952 0.42288974 -1.0596515 188 163 136
1.3342746 0.31743178 -0.8922472 156 135 111
1.4827094 0.25740114 -1.0730534 204 175 140
1.1414409 0.16117287 -0.6576926 18 15 17
1.11109 0.09807452 -0.6208297 19 17 18
1.0785456 0.037939332 -0.58129215 26 23 26
0.85227484 0.022696676 -0.30582705 31 22 15
0.74561703 0.0078517 -0.17599131 159 125 95
0.70670384 -0.01616578 -0.12864824 189 150 115
0.56325454 0.015723627 0.046047892 122 103 91
0.5585415 -0.006324051 0.05175474 87 78 81
0.5553229 -0.029371912 0.055640683 163 153 148
0.5492469 -0.050503593 0.06300817 121 108 95
0.5508889 -0.078145586 0.060969703 157 140 134
0.6193609 -0.17341293 -0.022531023 164 120 80
0.61772466 -0.20795047 -0.020587975 150 108 70
0.61188424 -0.23843847 -0.013520585 126 94 68
0.6065223 -0.26969615 -0.0070367935 137 101 70
0.60084814 -0.30074853 -0.00017256835 137 103 69
0.59668505 -0.33442762 0.004848144 134 100 63
0.59399 -0.37131032 0.0080769155 142 120 91
0.59019876 -0.407212 0.012641726 119 95 69
0.5813693 -0.4335944 0.02335421 126 101 75
1.4329746 0.62120587 -1.148722 193 162 123
1.4367048 0.5455327 -1.1560009 191 164 128
0.95943046 0.32929003 -0.5179117 16 13 11
0.94543 0.27857712 -0.5005081 12 6 5
0.94354165 0.2300491 -0.49939567 130 76 57
0.892091 0.17716049 -0.4314852 108 71 48
0.7360613 0.13283402 -0.22210103 221 165 152
0.71547234 0.09888934 -0.19530398 198 174 157
0.56191856 0.09224739 0.01185299 192 138 123
0.528908 0.07823045 0.05601413 210 126 108
0.5232989 0.0593198 0.063028224 231 134 117
0.5249281 0.037320692 0.060176574 221 210 200
0.53543675 0.009158263 0.045151815 124 122 142
0.53974026 -0.017900428 0.038538966 143 144 166
0.542163 -0.045392834 0.034453027 100 99 125
0.5363867 -0.06718724 0.04160748 189 162 144
0.5317105 -0.0898619 0.047250416 167 142 123
0.62306476 -0.22080949 -0.07999014 137 114 90
0.61701334 -0.25401217 -0.07280203 155 128 106
0.61183065 -0.28862846 -0.066828966 191 177 159
0.60557485 -0.32207146 -0.059371933 210 203 186
0.59945065 -0.35591924 -0.052104674 184 178 168
0.59025866 -0.3844133 -0.040536184 154 139 119
0.58126974 -0.41258687 -0.029232452 152 138 112
0.57248366 -0.44048727 -0.018194523 135 114 90
0.56292075 -0.46588844 -0.00603351 134 112 81
1.3984853 0.6662377 -1.2473804 134 86 53
1.395048 0.5876477 -1.2470372 139 88 61
0.9295931 0.351897 -0.56368476 13 10 7
0.916501 0.30124 -0.5471582 12 10 8
0.9091184 0.25201038 -0.5391036 122 77 64
0.77232736 0.18910043 -0.33788526 64 60 59
0.7179236 0.14878035 -0.25879416 88 88 81
0.68933314 0.1146703 -0.21802072 199 186 175
0.6586764 0.08467404 -0.1738979 119 108 102
0.52208316 0.08575787 0.030940257 202 191 192
0.51013315 0.068553604 0.04780202 85 68 57
0.5112325 0.047037497 0.044837214 161 150 138
0.5156352 0.022601308 0.036741436 121 112 108
0.5443121 -0.019840084 -0.008846638 66 72 104
0.5402666 -0.044342272 -0.0042813136 82 95 136
0.6220114 -0.14607401 -0.13305403 148 138 128
0.613973 -0.17764571 -0.12293558 145 131 117
0.6108581 -0.2146019 -0.12052756 142 128 115
0.6103026 -0.25588697 -0.12222159 99 86 73
0.6030597 -0.2894448 -0.1134172 98 86 79
0.5936158 -0.31949916 -0.101098776 88 77 73
0.58395314 -0.34845448 -0.088385284 99 91 83
0.5746289 -0.37720615 -0.07616661 132 116 99
0.5659063 -0.40640968 -0.06487747 141 121 99
0.5568553 -0.4342317 -0.05301153 137 114 91
0.5486852 -0.46339142 -0.04254804 135 110 86
1.385659 0.645876 -1.3932117 110 81 70
1.1686642 0.4794649 -1.0476203 37 31 26
0.8949365 0.3263084 -0.6061796 15 11 13
0.8833579 0.2755796 -0.5917904 28 14 8
0.88533515 0.22698641 -0.59979016 168 109 83
0.8141042 0.17180918 -0.4863992 36 26 27
0.71549135 0.12841445 -0.32622576 14 69 97
0.70316786 0.09095758 -0.30931005 15 14 15
0.578137 0.07951695 -0.102008276 100 98 104
0.52475035 0.0686703 -0.0140700815 99 86 86
0.5266889 0.044095617 -0.019680146 120 110 109
0.5636351 -0.0009516537 -0.085625224 161 133 114
0.61893374 -0.06777229 -0.18426885 105 95 100
0.61386627 -0.10226047 -0.17916055 84 77 77
0.6018177 -0.13090509 -0.16185021 92 86 80
0.5913643 -0.15987912 -0.14723052 115 106 94
0.58652985 -0.19449846 -0.1425234 123 111 102
0.58329093 -0.23182073 -0.14073741 110 103 90
0.57993865 -0.27009845 -0.13885504 105 90 78
0.5730393 -0.30372995 -0.13061032 79 76 74
0.5650136 -0.33538184 -0.12029662 95 81 73
0.55634886 -0.36542192 -0.108761616 96 78 62
0.54757154 -0.39460567 -0.096956156 107 90 65
0.5386465 -0.42272782 -0.08480167 117 95 72
0.5306138 -0.45232898 -0.07427762 103 81 64
0.5228029 -0.48204538 -0.06413454 100 79 57
3.4005864 1.7800255 -5.166215 70 72 86
3.4427924 1.5565941 -5.2752748 76 79 89
3.569036 1.3481052 -5.5383763 61 57 59
0.88355863 0.30702466 -0.6932171 9 11 19
3.8533463 0.84188217 -6.135937 20 38 68
3.9445946 0.52739227 -6.3485875 36 53 76
0.92498267 0.1480699 -0.7919752 15 12 14
0.8937924 0.08909899 -0.74213564 17 18 21
0.85874856 0.03465306 -0.68451744 15 16 19
0.81728864 -0.013003932 -0.61405 23 16 19
0.72802615 -0.03432401 -0.45117858 23 18 16
0.65548277 -0.046128854 -0.31805563 186 150 115
0.5823557 -0.042007804 -0.18166257 213 164 115
0.5801828 -0.07660439 -0.18237501 167 130 90
0.58469075 -0.11854196 -0.19650406 92 79 64
0.5695593 -0.14284003 -0.1717336 112 101 88
0.5605772 -0.1721432 -0.15907195 96 90 85
0.55707145 -0.20825115 -0.15751609 97 89 82
0.5539295 -0.24599302 -0.15686026 92 87 80
0.54973155 -0.2832205 -0.15417236 58 59 61
0.54218215 -0.3150967 -0.14452498 60 59 57
0.5350274 -0.3475798 -0.13569395 66 59 54
0.52701133 -0.37800097 -0.124980085 158 144 124
0.5194982 -0.4092273 -0.11531093 107 90 69
0.51128393 -0.43823957 -0.10403554 101 83 64
0.5024746 -0.46479622 -0.09131777 110 90 68
3.2342184 1.6596315 -5.4437 73 76 88
3.4004772 1.483831 -5.821096 51 53 71
4.0676827 1.4415476 -7.213839 79 81 89
4.1918316 1.127736 -7.5291624 53 60 69
4.087967 0.73934555 -7.3848715 58 55 65
3.8052366 0.34497833 -6.8703885 104 104 106
0.87178177 0.1149435 -0.8233797 24 24 29
0.8324176 0.058889728 -0.7519595 17 18 19
0.80436254 0.005862071 -0.70345896 15 16 20
0.6809689 -0.006266103 -0.44954595 190 123 105
0.6057001 -0.015133336 -0.2949317 208 160 118
0.5592675 -0.025190689 -0.20039378 220 172 119
0.55285424 -0.05586772 -0.19271356 227 188 142
0.566239 -0.105010584 -0.22952038 66 53 41
0.5510574 -0.12927124 -0.20246083 81 77 73
0.5375758 -0.15299985 -0.17883237 97 89 83
0.5308812 -0.1840709 -0.17064069 104 96 87
0.52731454 -0.22012773 -0.16985714 96 91 84
0.52634263 -0.26202688 -0.17553243 55 55 60
0.5196912 -0.2949145 -0.16776365 60 59 58
0.5124723 -0.32664266 -0.15860404 64 55 48
0.50527483 -0.3582696 -0.14947043 57 43 36
0.49809945 -0.38979667 -0.14036426 107 91 80
0.49072874 -0.4205778 -0.13071576 97 81 60
0.4827579 -0.44910395 -0.11940738 103 83 63
0.4740856 -0.47441766 -0.106053144 111 89 66
2.9666867 1.72143 -5.465833 73 76 93
3.0687 1.5383263 -5.746821 75 78 92
3.2203524 1.3467284 -6.1454124 52 58 77
3.8948855 1.2804439 -7.731837 34 36 43
3.8036294 0.90000945 -7.609601 47 53 61
3.5204012 0.50046265 -7.04488 63 68 71
2.798107 0.14500621 -5.4473023 53 59 56
0.9909742 0.06268555 -1.2587974 35 35 40
0.7707784 0.030903248 -0.75359666 23 22 25
0.68856436 0.0009193379 -0.5692692 34 26 29
0.65057325 -0.03213268 -0.4886461 15 15 19
0.5382843 -0.009785647 -0.22187142 218 173 125
0.531541 -0.039823342 -0.2132958 224 179 129
0.54493564 -0.08882214 -0.2561115 57 51 44
0.53278005 -0.11599581 -0.23425356 103 87 69
0.5186093 -0.13873005 -0.20664991 150 125 102
0.5078385 -0.16372731 -0.18749999 105 100 91
0.50367236 -0.19815956 -0.18596825 104 95 87
0.49918225 -0.23297188 -0.18377224 101 92 82
0.49524024 -0.2698989 -0.1833542 67 58 49
0.48955595 -0.30401424 -0.1782121 79 64 51
0.4829762 -0.33631638 -0.17055465 87 63 42
0.476389 -0.36869776 -0.16289851 92 78 59
0.46953094 -0.4003131 -0.15443009 125 109 88
0.46199322 -0.42944768 -0.14379036 121 96 69
0.45436 -0.4576473 -0.13270648 123 98 76
2.406256 0.81479913 -0.4948637 70 39 18
2.3963494 0.7230479 -0.47360513 56 25 12
2.405267 0.6349355 -0.45943695 73 39 20
2.3481283 0.53205913 -0.4199991 76 40 21
2.3092108 0.4352223 -0.3879154 70 37 23
1.1467742 0.2303433 0.04605146 205 156 108
1.1228567 0.18985139 0.062058046 199 150 113
1.1535223 0.1511471 0.0592156 134 99 73
1.5263001 0.09409776 -0.056002796 77 40 25
2.1133168 -0.019647857 -0.2327735 25 22 22
2.223038 -0.12534961 -0.2493398 55 51 46
2.2598891 -0.22988832 -0.24143444 17 14 12
2.2155902 -0.32035607 -0.20876938 25 21 17
2.2042367 -0.41788444 -0.18589336 28 21 18
2.20575 -0.5206726 -0.16635217 26 17 15
2.1999216 -0.6226867 -0.14447357 22 14 6
2.3614075 -0.8030579 -0.16401663 97 80 65
2.311247 -0.8946057 -0.12915426 125 86 52
2.1986537 -0.94686407 -0.08079635 132 93 56
2.0716069 -0.9790468 -0.031456433 137 96 57
1.6240658 -0.77574694 0.08056855 160 129 91
1.2186941 -0.55135614 0.17418568 185 156 118
1.187398 -0.5839489 0.19115205 197 172 131
1.0392619 -0.5105652 0.22704381 18 14 10
0.9868721 -0.5098118 0.24465375 242 155 18
0.9585865 -0.5275884 0.25770906 255 198 94
2.1447556 0.7073338 -0.47157905 196 164 120
2.1664865 0.631697 -0.4659911 200 165 128
2.2305472 0.5617021 -0.47789502 190 156 121
2.2361267 0.47446412 -0.46388024 176 145 114
2.1255717 0.3708678 -0.40171218 186 155 138
0.8932022 0.19188051 0.11027142 221 192 163
0.8948367 0.16310202 0.11497468 221 193 159
0.9063812 0.1333916 0.11600086 227 208 184
0.9085469 0.10263514 0.12086474 230 216 196
0.91626406 0.070376895 0.12385041 216 182 143
0.93225867 0.035248596 0.12415261 207 156 107
0.94295245 -0.0010088998 0.12672372 204 152 108
0.9748794 -0.045100193 0.122498736 153 116 79
2.2225375 -0.5039383 -0.27710918 27 18 14
2.2294312 -0.61526674 -0.25913623 125 111 103
2.3998125 -0.80345374 -0.29042184 55 46 45
2.296791 -0.87447774 -0.23722273 110 73 41
2.1795707 -0.9276656 -0.18181576 128 89 53
2.0743802 -0.97665846 -0.13186067 139 98 61
0.91017514 -0.28005987 0.19122125 137 102 75
0.9261243 -0.3314836 0.19456393 146 115 82
1.223469 -0.6175115 0.13210161 176 148 113
1.0294187 -0.5068309 0.18696006 20 15 14
0.99851656 -0.5273906 0.20277953 189 121 21
0.96091473 -0.53789 0.21933566 255 186 75
0.94899005 -0.57238543 0.23036729 241 156 0
2.0345569 0.7270837 -0.519057 192 161 118
2.063628 0.65719146 -0.51965475 200 165 128
2.097823 0.58440423 -0.5220087 200 168 129
2.155892 0.51155925 -0.5348986 183 150 113
2.216511 0.43194863 -0.5477298 194 162 121
0.85392344 0.20276684 0.094324216 114 81 57
0.8481586 0.17481346 0.10176772 131 95 67
0.8459023 0.14689504 0.10765534 176 133 98
0.8489812 0.11837665 0.111291215 210 159 110
0.8534889 0.08881504 0.11447874 213 162 115
0.8618172 0.057576194 0.11627242 212 162 110
0.8698035 0.024884313 0.11847163 215 161 112
0.87947196 -0.009793696 0.120275736 216 163 112
0.8948387 -0.04809933 0.12019827 210 155 105
0.92661047 -0.095187694 0.11441271 130 105 80
0.92013216 -0.1298658 0.123349406 127 97 71
0.9198763 -0.16770354 0.13009106 150 109 74
0.90420234 -0.19762233 0.14225608 149 108 73
0.89567995 -0.23090978 0.15185219 181 158 130
0.89066005 -0.26638746 0.16028482 177 143 112
0.9258894 -0.33267358 0.15633504 156 126 93
1.2505629 -0.6442705 0.06750168 148 120 88
1.0218027 -0.5053358 0.14421432 24 20 17
0.99232614 -0.528429 0.16128069 98 65 -1
0.96502954 -0.55072993 0.17724544 249 172 41
0.95658755 -0.59121567 0.18806702 239 154 0
0.89941686 0.34033647 0.017619293 194 163 124
0.9114686 0.3152048 0.015728354 185 139 81
0.9390153 0.2918449 0.0058139176 171 122 61
0.9885312 0.2690733 -0.015160935 148 103 49
0.8746855 0.22013079 0.04968478 198 165 129
0.8493071 0.18872848 0.06750249 133 97 68
0.8453374 0.15985876 0.07422051 132 96 69
0.84328383 0.13075958 0.08001994 139 100 70
0.8401284 0.10136715 0.08641731 159 120 84
0.8367762 0.07172617 0.092953704 156 117 84
0.8335822 0.041791774 0.09945932 158 119 83
0.8323855 0.0110631455 0.10509848 161 118 81
0.8340713 -0.021097714 0.10953406 192 145 103
0.84090614 -0.056071162 0.11186147 214 161 110
0.8529568 -0.09486575 0.11221292 174 147 118
0.8654073 -0.1361281 0.11276969 156 116 79
0.8655133 -0.17287004 0.11874541 160 120 81
0.86867154 -0.21238048 0.12365206 198 168 130
0.873159 -0.25411072 0.12825964 188 161 130
0.9062298 -0.3191595 0.12242864 172 140 104
1.266743 -0.6625515 -0.0011441237 159 125 92
1.2498131 -0.71741796 0.01630729 168 137 105
1.1796671 -0.7193871 0.051637083 156 134 105
0.9944783 -0.59110606 0.12300837 105 63 15
0.987901 -0.6380208 0.13398856 126 75 16
0.99097747 -0.696967 0.14212501 165 125 97
0.9044995 0.36232236 -0.023680102 160 129 89
0.8823252 0.32615855 -0.0057414034 197 167 132
0.8925827 0.2998754 -0.0074980548 169 145 112
0.89523464 0.27040726 -0.0045039533 194 164 136
1.6078626 0.3495948 -0.41629687 159 115 61
0.85049915 0.2036624 0.030741515 123 88 63
0.85025305 0.1739641 0.035396263 131 97 65
0.8453349 0.14368702 0.04275984 138 100 68
0.84164983 0.11322826 0.049459368 155 116 80
0.8388577 0.08241409 0.05571205 161 122 87
0.83513784 0.05140235 0.06251517 154 113 78
0.83309317 0.019731224 0.068478905 157 116 78
0.8316358 -0.012590665 0.074212104 158 117 82
0.8311754 -0.04583645 0.07952661 153 113 79
0.83103734 -0.079930745 0.084789336 154 117 81
0.84122694 -0.11984731 0.08514426 174 148 116
0.84706175 -0.15953112 0.08790661 165 135 104
0.85118127 -0.19981338 0.09172213 163 133 101
0.86036104 -0.24509214 0.093458995 158 129 99
0.88421494 -0.30386353 0.08901645 181 152 116
1.2776262 -0.6769605 -0.0749249 182 149 113
1.2559267 -0.7311157 -0.05451638 183 150 116
1.2120169 -0.7617946 -0.02521926 190 167 132
1.1473926 -0.7652658 0.01155978 100 74 58
1.0911965 -0.76983356 0.043777738 107 69 61
1.047861 -0.78273714 0.07004924 134 72 54
1.2124155 0.45836443 -0.26848832 145 109 42
1.1842651 0.40385765 -0.24322832 109 87 59
0.88104165 0.2860336 -0.036416523 198 170 136
1.0361407 0.28373826 -0.13349865 181 133 73
0.92473525 0.22926159 -0.055959076 203 172 136
0.8541118 0.18925568 -0.0060431883 159 120 83
0.849789 0.15770887 0.0010595516 158 119 81
0.8453202 0.12596099 0.008281968 145 111 79
0.8413006 0.093973115 0.015255727 150 110 75
0.8372413 0.061734267 0.022289243 140 104 69
0.83482355 0.028875113 0.028378189 141 103 74
0.83273816 -0.004554931 0.034337807 143 107 77
0.83196604 -0.03897673 0.03961067 149 110 75
0.8316936 -0.0743343 0.04469991 140 103 68
0.83653903 -0.11297181 0.047031347 182 158 125
0.83935827 -0.1520602 0.050697982 159 127 99
0.8410585 -0.19178882 0.05515637 159 127 95
0.85129136 -0.23865211 0.055248734 131 82 60
0.8729171 -0.29680386 0.049756616 147 117 86
1.3146555 -0.7140226 -0.169619 179 153 123
1.270484 -0.7534187 -0.13639958 176 142 110
1.2272147 -0.7887186 -0.10431659 184 156 120
1.1828636 -0.81778926 -0.07242072 172 142 109
1.0965698 -0.79227936 -0.021776954 152 75 64
1.0512407 -0.8053354 0.008505525 157 99 78
1.0332472 -0.84907657 0.02588953 172 143 110
1.2087045 0.4907473 -0.33239773 143 110 44
1.2216285 0.4474588 -0.3360455 149 113 49
0.94091874 0.32215238 -0.12364742 203 175 140
1.2697967 0.35839728 -0.35867354 205 175 143
1.753732 0.38237438 -0.7008392 144 107 73
0.8545658 0.20553823 -0.048552003 136 101 68
0.8545741 0.17304397 -0.044496667 166 128 92
0.8494396 0.13986011 -0.036750823 175 132 94
0.8446709 0.10649222 -0.029238334 162 122 84
0.84014016 0.07288387 -0.021862537 133 100 76
0.8364757 0.038856555 -0.015041487 153 112 75
0.83418196 0.004097947 -0.009089785 143 106 76
0.832732 -0.03150585 -0.0036238323 150 111 75
0.8319468 -0.068077795 0.001497262 136 100 67
0.8387571 -0.1090471 0.001844576 187 163 130
0.8400631 -0.14897765 0.0059197787 187 163 131
0.83451843 -0.1858935 0.014419538 141 108 76
0.8485801 -0.23660855 0.0109026795 112 87 64
0.8650897 -0.29249305 0.006316261 150 122 86
0.96725893 -0.42505407 -0.048722148 153 127 96
1.2905383 -0.78194314 -0.23069046 167 135 101
1.2377682 -0.8124073 -0.18989873 170 140 109
1.1842961 -0.83529276 -0.14956233 161 135 103
1.1326058 -0.8530848 -0.111111216 190 164 131
1.0846016 -0.86840993 -0.075551815 181 152 112
1.0343878 -0.87385964 -0.039678015 176 150 106
1.2262958 0.4843975 -0.41276476 143 110 44
1.2747447 0.44839007 -0.44662502 86 73 48
1.6900386 0.49811056 -0.77613866 205 176 143
1.6970975 0.41965464 -0.7730495 198 141 66
1.6191626 0.3269408 -0.7020748 204 171 135
0.8582142 0.18976271 -0.093253784 159 118 82
0.85242486 0.15507957 -0.08493558 146 107 71
0.8471819 0.12025261 -0.077027895 153 112 79
0.84237295 0.08518438 -0.069432475 136 102 76
0.8387034 0.04965549 -0.0626757 108 87 71
0.8365064 0.013342296 -0.05698204 166 123 86
0.8341923 -0.023575738 -0.051130667 149 110 74
0.83339036 -0.061730124 -0.046323843 131 93 58
0.8492606 -0.10846317 -0.053586707 184 160 127
0.8012888 -0.12442398 -0.014403954 105 91 69
0.80179036 -0.16382544 -0.0104775755 143 112 78
0.8457792 -0.23448962 -0.03705971 95 70 51
0.85862595 -0.28934476 -0.0410732 174 144 112
0.9029506 -0.37462068 -0.06631615 151 116 90
1.2827079 -0.7855159 -0.31762412 159 131 100
1.2327316 -0.82155997 -0.2746764 144 116 88
1.1759318 -0.84339005 -0.22796176 192 167 130
1.1202039 -0.85840327 -0.18283056 178 151 115
1.0713267 -0.8741405 -0.14296594 174 147 111
1.026849 -0.88880336 -0.10665196 175 147 118
0.99204504 -0.9114151 -0.07701559 175 146 111
1.2126737 0.5170636 -0.47935086 135 105 47
1.2687103 0.48482466 -0.5249649 84 71 47
1.6094882 0.5272443 -0.82447183 194 170 139
1.654528 0.45998415 -0.8573007 203 175 143
1.6916186 0.38402107 -0.88242775 140 118 95
1.65616 0.29360235 -0.84328884 203 172 133
0.8628352 0.17206275 -0.14392932 169 133 104
0.8534103 0.13523848 -0.1323402 139 100 68
0.8465728 0.09849182 -0.12300243 141 99 68
0.84687257 0.06059005 -0.11974809 137 94 61
0.83913124 0.023468217 -0.10959165 140 96 60
0.83624375 -0.015030022 -0.103517525 142 100 65
0.8347412 -0.054687545 -0.09853719 135 97 65
0.85825676 -0.10647933 -0.11413116 175 152 119
0.7937494 -0.11661028 -0.057241324 105 90 68
0.7750448 -0.14547905 -0.038341112 113 97 80
0.8026299 -0.204434 -0.056800593 127 107 82
0.8207788 -0.2619299 -0.06721092 139 119 94
0.86727387 -0.34843525 -0.099517435 157 129 99
1.1854389 -0.7044808 -0.34246445 167 139 108
1.213236 -0.8168157 -0.35615832 149 119 90
1.1619632 -0.84649324 -0.3089352 131 99 73
1.1048242 -0.8614683 -0.2579871 163 135 104
1.0545 -0.87666994 -0.21292888 172 143 108
1.0118406 -0.89505976 -0.1742231 146 119 87
0.94419605 -0.8677392 -0.11808486 171 131 88
1.577307 0.6463911 -0.9210883 196 167 130
1.5711938 0.5680783 -0.90939164 196 171 138
1.5925208 0.49596405 -0.92458135 203 175 145
1.5987258 0.4160706 -0.9246306 227 167 82
1.6482916 0.3394436 -0.966681 208 176 137
1.6471733 0.25022346 -0.9589856 210 180 138
1.6482677 0.1588037 -0.9532583 212 182 141
1.6441095 0.065087005 -0.9423017 213 185 143
1.6264682 -0.02882355 -0.918346 214 185 145
0.92605025 0.017379034 -0.24723285 130 90 48
0.8931916 -0.020968372 -0.21274361 140 96 56
0.8487748 -0.051437333 -0.16770768 167 122 78
0.86509633 -0.102761924 -0.17961897 173 145 111
0.8470114 -0.14016913 -0.15942733 114 97 75
0.7628274 -0.13595216 -0.07866644 122 105 82
0.72964084 -0.15375471 -0.045385376 153 138 111
0.72439444 -0.18868196 -0.037741926 133 108 75
0.72678006 -0.23052335 -0.036935627 133 107 80
0.73736084 -0.28202248 -0.043305274 141 113 81
1.0570501 -0.6670395 -0.32262293 122 63 48
1.1056653 -0.80147177 -0.35946986 129 92 66
0.6269191 -0.27640516 0.06263936 198 141 81
0.6059616 -0.2835087 0.08334954 200 141 80
0.59025097 -0.29498914 0.09933132 194 137 78
0.5751024 -0.30494258 0.114658564 189 133 71
0.56140316 -0.31497982 0.12859623 180 125 73
1.5074944 0.6751222 -0.97341144 213 171 117
1.5227778 0.60632986 -0.986053 215 172 115
1.5406467 0.53445107 -1.0012921 202 168 127
1.5477512 0.45554036 -1.0046488 205 170 119
1.5839666 0.3787355 -1.0392325 201 171 139
1.5815682 0.29039365 -1.0319259 208 178 139
1.5800472 0.19997555 -1.0254457 210 180 141
1.5803562 0.10717199 -1.0207934 210 182 145
0.7524756 0.098826066 -0.13550042 27 23 26
0.91586435 0.034169573 -0.3066601 159 120 84
0.87114346 -0.003047512 -0.25686392 191 151 109
0.85711443 -0.044954903 -0.23961955 232 184 129
0.8484566 -0.08821873 -0.2280432 183 137 97
0.8356374 -0.12931272 -0.21213558 154 125 90
0.74443334 -0.12262065 -0.11501523 137 137 118
0.7182878 -0.14571992 -0.08583058 136 122 100
0.69656533 -0.16868167 -0.061380614 143 121 91
0.68041575 -0.19363895 -0.042779833 190 140 86
0.64783967 -0.20047972 -0.007595024 194 138 76
0.63270825 -0.22083417 0.00967041 186 129 67
0.61690736 -0.23839356 0.027501289 198 137 73
0.6040789 -0.25759268 0.042243246 184 128 70
0.5911071 -0.2749061 0.057037212 154 110 66
0.57807034 -0.29031166 0.07179799 137 98 64
0.56845504 -0.30949992 0.08310514 136 99 62
0.55972373 -0.32912645 0.09349095 133 98 63
1.4682622 0.6423976 -1.0562971 191 162 124
1.4792516 0.5697381 -1.0670863 190 163 127
1.4874582 0.492659 -1.0744375 193 166 128
1.3243264 0.374358 -0.8772585 68 58 45
1.3030527 0.29810864 -0.84966356 172 146 121
1.5137799 0.24066547 -1.0978682 207 178 141
0.76816195 0.14777341 -0.21048336 23 18 18
0.72201496 0.114608675 -0.15471432 21 17 19
0.67220676 0.08826241 -0.09481298 28 25 25
0.5207852 0.093230784 0.084661745 140 115 99
0.52189565 0.07369315 0.083948724 173 136 102
0.5265954 0.05187558 0.079048336 192 154 124
0.53375155 0.027332434 0.07131824 134 113 103
0.5442306 -0.001213448 0.05977013 75 74 100
0.54825246 -0.028071364 0.055829734 198 198 203
0.5396244 -0.046553515 0.06663664 134 121 112
0.5247263 -0.05852698 0.08468035 187 185 193
0.52335113 -0.08174083 0.08702967 157 124 100
0.60776794 -0.20089944 -0.009426743 133 100 68
0.5953594 -0.22162576 0.0059343013 137 107 84
0.58740014 -0.24672307 0.01615243 141 111 82
0.57897276 -0.2705251 0.02688587 140 108 75
0.5704663 -0.2934377 0.037685618 140 107 73
0.56575245 -0.32208672 0.044163667 135 105 76
0.69523764 -0.60187984 -0.10078814 126 102 73
0.69020194 -0.64964813 -0.09333692 142 116 85
1.4318655 0.6868726 -1.1500118 194 163 126
1.4375309 0.6123056 -1.1570661 194 165 130
1.4477777 0.5362464 -1.1701484 185 159 129
0.97358894 0.32751837 -0.54424024 13 10 11
0.96723205 0.27619243 -0.5355826 18 8 4
0.97292715 0.22569825 -0.54280835 159 98 77
0.74493873 0.16392773 -0.24208592 51 40 34
0.6086486 0.13340388 -0.062351022 221 188 183
0.54044163 0.11584209 0.027610572 217 201 184
0.51949847 0.09912017 0.055295918 202 113 102
0.51643836 0.08002456 0.059432693 212 115 97
0.5215889 0.057580646 0.052770104 212 83 67
0.52389646 0.03484703 0.049854875 182 172 164
0.5278046 0.009963333 0.04484256 67 73 111
0.531934 -0.016673043 0.039548423 91 102 137
0.5330937 -0.042679183 0.03816349 59 76 129
0.5228249 -0.05951332 0.051785603 131 112 102
0.5096296 -0.07200761 0.06923949 192 177 165
0.5072929 -0.09472822 0.07244309 148 123 98
0.60703653 -0.24651405 -0.058137797 140 109 83
0.62848085 -0.31612298 -0.08600873 159 138 118
0.69724315 -0.46499893 -0.17578676 186 177 165
0.76005596 -0.62485677 -0.25766572 127 116 103
0.7477723 -0.66976637 -0.24123453 151 138 114
0.7337472 -0.7104759 -0.22253217 119 103 84
0.7113286 -0.73207325 -0.19287607 139 118 92
1.4033356 0.65968925 -1.2612444 137 88 55
1.4181138 0.585347 -1.284614 143 91 58
0.93154275 0.34801814 -0.5771978 11 9 6
0.92119616 0.2965891 -0.56322664 14 12 14
0.920428 0.246751 -0.56325233 64 51 40
0.7591204 0.18296978 -0.32838628 37 33 30
0.73201615 0.1438372 -0.28957844 43 41 38
0.6196658 0.11619908 -0.12560709 149 148 138
0.7015174 0.07159664 -0.24656215 116 172 220
0.69163483 0.03621884 -0.23289996 158 144 148
0.69175756 -0.0023655288 -0.23397109 79 62 50
0.6849005 -0.039046828 -0.22477193 102 86 75
0.61102176 -0.03681824 -0.116477065 80 73 73
0.5551218 -0.03252001 -0.034476038 88 85 88
0.5412077 -0.050638855 -0.014508323 116 111 112
0.5389476 -0.077362016 -0.011814279 181 171 155
0.51279056 -0.079823054 0.026452757 158 142 125
0.503693 -0.09678463 0.03939025 137 124 111
0.76050395 -0.4578518 -0.34521675 87 74 63
0.9066995 -0.7317932 -0.565743 91 78 69
0.8737421 -0.76745653 -0.5182796 84 72 66
0.8035208 -0.7327091 -0.4145922 92 79 69
0.74961317 -0.7106807 -0.33510068 130 113 93
0.71247447 -0.7090626 -0.28064966 133 110 87
0.6869537 -0.72404957 -0.2436041 131 108 82
0.6660784 -0.7444998 -0.21349113 131 109 86
1.4693744 0.76202416 -1.5321368 89 75 77
1.5033501 0.6890077 -1.5916506 87 78 84
1.102807 0.44665936 -0.95126253 23 24 28
0.8914308 0.3204092 -0.613223 23 17 17
0.8892547 0.2704711 -0.61244243 94 63 52
0.9115268 0.22217213 -0.6514797 194 123 94
0.9256699 0.16784826 -0.6775817 55 32 34
0.85153264 0.114160545 -0.55954117 27 31 48
0.8346488 0.06365754 -0.53478336 32 28 27
0.859713 0.0038926918 -0.5790148 34 29 32
0.86449915 -0.055827405 -0.5901422 178 164 146
0.8319579 -0.10154122 -0.5395596 41 35 23
0.6065106 -0.031792436 -0.16767254 196 152 102
0.6010361 -0.06397254 -0.160522 68 59 49
0.5985316 -0.09871647 -0.15836215 80 70 59
0.57867557 -0.118167154 -0.12702912 97 88 78
0.5801017 -0.15671901 -0.1314968 103 94 80
0.58136874 -0.1970881 -0.13580564 104 97 88
0.58104384 -0.2374171 -0.13751362 104 99 90
0.7364256 -0.5117821 -0.40638366 90 78 69
0.68491894 -0.4957004 -0.3214126 102 94 85
0.7412466 -0.66135114 -0.4225547 59 44 32
0.7228259 -0.7012778 -0.3947011 112 90 71
0.68787426 -0.70269376 -0.3377253 115 92 67
0.65615326 -0.70246017 -0.28593162 132 107 82
0.63049823 -0.7090014 -0.24441586 101 79 60
1.7806594 0.90970075 -2.2877073 74 77 91
1.7581252 0.77969116 -2.2586458 82 85 97
1.4063421 0.5344323 -1.6398867 45 47 54
0.8861802 0.30177203 -0.7129361 23 29 37
1.2499161 0.3109876 -1.375328 22 43 71
1.2240806 0.21976145 -1.336659 28 44 65
0.97130513 0.13437451 -0.88364184 14 13 16
0.9090992 0.073657036 -0.77583146 20 18 22
0.86215895 0.019844562 -0.69521797 17 18 19
0.8155884 -0.026464852 -0.6145846 148 91 86
0.8408352 -0.09682791 -0.6671299 31 29 27
0.5866246 -0.017823393 -0.19628711 208 158 110
0.57039475 -0.04264934 -0.16899 213 165 114
0.5822565 -0.08782776 -0.19479865 61 50 37
0.5721246 -0.11687045 -0.17901091 103 90 77
0.56248 -0.14537437 -0.16406171 88 84 77
0.55680233 -0.177793 -0.15670824 95 90 83
0.5546771 -0.21531448 -0.15630439 97 89 83
0.6397639 -0.3898785 -0.32760364 63 64 67
0.63952374 -0.44824246 -0.33256534 57 56 56
0.6199939 -0.47281426 -0.29922745 66 59 56
0.60235345 -0.49727046 -0.26932403 123 112 100
0.6183523 -0.595239 -0.30756044 136 118 98
0.6159119 -0.65721995 -0.30884475 104 87 62
0.59409773 -0.6692353 -0.2701799 92 76 62
0.57722324 -0.6898697 -0.24131957 89 70 58
1.6999599 0.9702695 -2.4094052 72 77 94
1.6932536 0.8481263 -2.4122136 77 79 98
1.4482697 0.62412465 -1.9418133 65 64 83
1.2007312 0.4392183 -1.4609065 43 41 51
1.1735338 0.34727976 -1.4177521 45 44 57
1.1533564 0.25818288 -1.388561 42 37 46
1.1282794 0.16956578 -1.3492912 84 83 84
0.8915682 0.09949031 -0.874987 24 22 27
0.8315073 0.044584144 -0.75966114 18 19 21
0.7686891 0.0015844138 -0.63709 142 97 79
0.7441648 -0.045341782 -0.59331316 67 34 30
0.5679629 -0.004525695 -0.22768182 217 171 126
0.5517133 -0.029563637 -0.19785684 228 187 140
0.5451967 -0.059848517 -0.18863334 206 163 112
0.55739737 -0.10815676 -0.22009988 67 53 39
0.54638743 -0.13591172 -0.20135094 117 99 84
0.53482705 -0.16147332 -0.18118039 111 104 91
0.5284245 -0.19274637 -0.17232338 110 100 91
0.5248381 -0.2285211 -0.16983059 103 95 85
0.60091954 -0.4102826 -0.34989703 63 62 59
0.5915899 -0.45228848 -0.33650908 59 58 55
0.5762791 -0.48059833 -0.30904514 62 51 42
0.5602318 -0.50403994 -0.27941784 92 75 62
0.5525456 -0.5462738 -0.26941946 108 97 84
0.55557245 -0.62018955 -0.2855992 125 106 81
0.5408826 -0.6431625 -0.2586829 109 87 69
1.599714 0.9029432 -2.5112398 76 78 94
1.5848233 0.77569175 -2.5005202 74 78 93
1.1774071 0.49264982 -1.6155533 84 88 100
1.093547 0.38015246 -1.4434298 66 74 80
1.0727688 0.2931907 -1.4117125 71 74 106
1.0530055 0.20719457 -1.3821512 75 81 74
0.9911549 0.123341985 -1.2553657 52 53 53
0.85603637 0.06140365 -0.95596194 18 20 27
0.7583643 0.01878295 -0.7391362 25 23 26
0.71518016 -0.023924973 -0.64768445 27 23 31
0.620137 -0.029649932 -0.43008193 210 170 132
0.5350629 -0.01786975 -0.23217686 219 173 122
0.5252953 -0.04587972 -0.21488623 214 167 116
0.53967786 -0.09674254 -0.25738406 122 113 101
0.52760917 -0.12364928 -0.23459542 133 125 109
0.5184094 -0.15242219 -0.21875225 132 112 93
0.5054868 -0.17444105 -0.19309479 107 100 89
0.5014288 -0.20909487 -0.19016895 105 96 86
0.49880087 -0.24734844 -0.19119918 91 84 75
0.53590703 -0.37281713 -0.2997767 61 46 38
0.52631164 -0.40708047 -0.2840391 67 45 27
0.5226371 -0.45599034 -0.28463256 90 65 40
0.5225881 -0.5175546 -0.2959078 106 92 72
0.51753503 -0.5674739 -0.29351652 121 104 83
0.5072462 -0.6007422 -0.27599943 123 101 73
0.49575195 -0.627827 -0.2545653 129 103 75
1.5146747 0.9619613 -2.6268942 71 77 94
1.4894481 0.82974523 -2.593432 74 78 95
1.298094 0.6192443 -2.146446 42 52 74
1.040759 0.41953963 -1.5250088 56 66 85
1.0143223 0.33060694 -1.4778447 31 39 57
0.99334204 0.24467158 -1.4441587 213 239 241
0.960801 0.15959379 -1.3801587 43 47 54
0.8776556 0.08406872 -1.1820529 20 22 30
0.7965492 0.0259426 -0.9850154 38 40 41
0.6908917 -0.004105868 -0.71720076 15 15 20
0.6652706 -0.049046647 -0.6614369 23 23 30
0.51767105 -0.005660609 -0.26650155 214 172 127
0.50633734 -0.032704845 -0.2435802 214 178 137
0.5200248 -0.083537824 -0.29161462 65 59 58
0.51116586 -0.114380464 -0.27606368 62 53 52
0.5001117 -0.14122649 -0.2538221 119 95 77
0.48708913 -0.16298333 -0.22521402 98 94 88
0.48007956 -0.19278935 -0.21422625 93 84 75
0.47761747 -0.23158064 -0.21727079 95 83 74
0.50958973 -0.3522347 -0.3299399 93 60 50
0.501768 -0.39033058 -0.31885815 70 53 41
0.49630857 -0.43507874 -0.31554946 53 37 21
0.49109632 -0.48191684 -0.31339386 98 74 55
0.48762292 -0.53654444 -0.31766525 118 98 78
0.476974 -0.56620014 -0.2971638 117 94 71
0.46590063 -0.5917766 -0.27456266 131 106 81
2.0052059 0.7396206 -0.41888934 194 161 123
2.0059206 0.6653153 -0.40559402 197 162 127
2.018499 0.59276605 -0.39712524 194 164 125
2.013041 0.51410174 -0.38068953 181 151 120
1.974552 0.42927822 -0.35058367 164 128 97
1.92811 0.3457987 -0.3177026 110 64 46
0.8779197 0.195028 0.1087011 206 172 144
0.8875134 0.16702615 0.11016987 197 165 135
0.8901496 0.137801 0.1145046 192 161 135
0.8906782 0.10798144 0.119748354 178 148 118
0.8996994 0.07653002 0.12206445 218 198 168
0.91055745 0.043308407 0.1240061 205 155 110
0.9213789 0.008421631 0.12626563 206 159 114
0.93435717 -0.028787319 0.12812999 200 150 108
0.94445825 -0.06702088 0.1312742 147 116 85
0.9249902 -0.09542531 0.14385454 90 82 76
0.8935719 -0.11696556 0.15972051 50 45 48
0.87929213 -0.14421004 0.17011848 101 69 47
0.8653319 -0.17061174 0.1802412 128 90 62
0.8500016 -0.1951505 0.1905442 140 99 59
0.82352036 -0.21089561 0.2034769 145 114 88
0.8112483 -0.23457439 0.21246123 160 124 93
0.80232143 -0.26003572 0.2205006 177 152 118
0.7995937 -0.2903671 0.22707458 129 113 92
0.8022811 -0.3260277 0.23256482 22 17 8
0.7938332 -0.3515752 0.24043792 245 164 23
1.9595078 0.7034633 -0.47547507 193 163 124
1.9830987 0.63450944 -0.47365573 196 166 127
2.0225685 0.5659004 -0.47873825 199 168 135
1.9751606 0.47570953 -0.4426358 194 164 131
1.9464351 0.39133325 -0.41559395 203 174 137
0.85448104 0.20744549 0.08686805 110 81 60
0.8435856 0.17906085 0.09649592 113 82 57
0.8379796 0.15126021 0.10374317 116 85 60
0.8374497 0.12326293 0.10883747 138 106 80
0.8404745 0.09444486 0.11254272 187 141 103
0.84602433 0.06439617 0.115373835 212 164 115
0.8551322 0.03246708 0.11699872 212 162 116
0.86443156 -0.00105341 0.11881773 215 164 116
0.8761049 -0.036946658 0.12002615 206 156 110
0.8904613 -0.07577874 0.12058923 176 140 104
0.8800945 -0.10605169 0.13031752 123 96 72
0.8621654 -0.13199882 0.14255252 147 111 80
0.85097134 -0.16021115 0.15227911 158 117 81
0.83402675 -0.18415958 0.16374244 178 154 127
0.82337224 -0.21094505 0.17298858 171 139 107
0.81407326 -0.23805137 0.18170635 155 125 92
0.8062809 -0.26584384 0.18989433 169 145 112
0.80246633 -0.29676786 0.19691253 160 131 93
0.79720694 -0.3265061 0.20434727 23 21 13
0.78997386 -0.35423115 0.21228243 227 136 1
0.77485484 -0.37313238 0.222082 240 157 30
1.4923302 0.5897389 -0.31663737 191 166 132
1.4583929 0.52304614 -0.28918546 189 149 103
1.4541194 0.46655798 -0.27782613 189 140 83
1.4703337 0.41403228 -0.2770744 162 116 60
1.6406035 0.38531974 -0.35510194 139 97 43
1.906508 0.35024133 -0.47855893 203 176 140
0.84514785 0.1930926 0.06305317 134 100 69
0.8410887 0.16425592 0.06976444 131 96 69
0.83765244 0.13530356 0.07619203 136 101 72
0.8351779 0.10610366 0.08219296 157 120 86
0.8328396 0.07661108 0.08817566 150 115 82
0.83019066 0.046883523 0.09434807 156 118 85
0.828246 0.0167081 0.100251764 158 120 86
0.82814187 -0.014397935 0.10541392 154 116 84
0.82990664 -0.046779584 0.10987755 177 136 98
0.83790994 -0.082666434 0.11188537 189 149 115
0.8439843 -0.11921797 0.11493985 152 117 83
0.84028757 -0.15178634 0.1220882 162 123 87
0.83212733 -0.1818246 0.13098991 193 166 129
0.8265976 -0.21330363 0.13885006 174 147 116
0.81650704 -0.24136145 0.14836444 170 140 105
0.8084994 -0.27048668 0.15704197 165 133 100
0.803356 -0.30177984 0.16468388 166 138 103
0.8009618 -0.3357237 0.17142524 198 177 139
0.8027579 -0.37438855 0.17690615 178 157 116
0.7939264 -0.40242973 0.18580589 14 10 6
1.6155977 0.61795825 -0.45556125 183 159 127
1.6281598 0.55718356 -0.4530506 172 146 113
1.7037097 0.5098523 -0.48697576 165 143 113
1.7921933 0.456308 -0.52699983 202 176 148
1.9713955 0.40597555 -0.6170123 162 116 64
0.8507311 0.20860597 0.02480055 122 89 64
0.8438937 0.1783377 0.033194527 126 91 66
0.84090215 0.14821003 0.039468657 137 101 72
0.837693 0.11785498 0.045896545 153 115 84
0.835093 0.08720207 0.05203795 152 114 83
0.83257955 0.056233272 0.05818085 152 114 84
0.8299812 0.02496535 0.064416185 154 115 81
0.8281685 -0.006854615 0.070307866 154 116 83
0.8277924 -0.03961242 0.07556039 152 115 82
0.8271255 -0.07286311 0.08104741 142 106 75
0.83490515 -0.110793166 0.08264731 175 153 122
0.8331402 -0.14520036 0.08891159 161 136 108
0.8348069 -0.18221532 0.09370546 149 120 91
0.8329307 -0.2177952 0.10021117 153 126 98
0.82199264 -0.24709971 0.11069388 174 149 116
0.8109263 -0.2755645 0.12111715 171 142 106
0.80279636 -0.30587262 0.13022248 187 152 117
0.7971423 -0.3382003 0.13828816 172 142 112
0.79715323 -0.37641072 0.14416964 194 172 136
0.77807534 -0.39414957 0.15731111 144 75 61
0.76223993 -0.41365716 0.16895616 160 94 77
1.8901503 0.7725442 -0.72594774 113 89 36
1.8980762 0.69503343 -0.7197042 134 103 43
1.8841436 0.6089885 -0.6989012 84 70 42
1.8946693 0.5285555 -0.6938265 198 172 144
1.9056456 0.44551906 -0.6886545 187 147 98
1.9064494 0.35838515 -0.676689 205 177 143
0.8494269 0.19382259 -0.008099027 160 122 88
0.846161 0.16230044 -0.0015997706 158 120 84
0.84159845 0.13058533 0.005718401 151 114 82
0.83909756 0.09856121 0.011822624 146 108 78
0.83591306 0.06629463 0.01837864 128 96 70
0.8336793 0.03353978 0.024424251 101 75 57
0.83152825 0.00035617177 0.030480683 116 86 63
0.83020717 -0.033542253 0.036132827 148 110 78
0.82916665 -0.06810464 0.041708663 134 98 69
0.83350325 -0.10582703 0.044454716 179 159 129
0.8333282 -0.14244698 0.049796518 149 121 87
0.8356347 -0.18135406 0.053950887 160 131 98
0.83691365 -0.22070421 0.05879562 142 105 83
0.8271023 -0.2527316 0.069361605 141 100 80
0.8144188 -0.2818247 0.08126085 181 156 121
0.8046795 -0.312564 0.09159876 159 131 99
0.7961357 -0.34388146 0.10128962 171 145 115
0.7889159 -0.37617388 0.11031202 172 146 114
0.7691571 -0.39397505 0.12491486 130 66 60
0.7503615 -0.41065305 0.13876937 176 101 85
1.8386494 0.7336353 -0.79121715 140 109 46
1.8511606 0.6561935 -0.7896018 148 117 59
1.8563522 0.5738627 -0.782364 201 178 141
1.8523892 0.48736423 -0.76834905 204 178 148
1.8410937 0.3984487 -0.74902636 152 113 66
0.8536681 0.21068731 -0.052284922 133 99 69
0.8497197 0.17771791 -0.04528345 138 104 75
0.84661734 0.14452967 -0.03882937 168 130 92
0.8428931 0.111075476 -0.03191713 121 95 76
0.8392198 0.07736743 -0.025006374 118 94 73
0.83631194 0.043244332 -0.018562308 155 115 81
0.8339764 0.0086014 -0.012439903 149 113 86
0.83320224 -0.027013682 -0.0072531374 150 112 80
0.8334381 -0.063710436 -0.0026124413 136 103 71
0.8352875 -0.1020011 0.0011384005 186 165 133
0.8366763 -0.14113918 0.005313662 184 163 137
0.8337124 -0.17869341 0.012244766 140 108 80
0.8370811 -0.22103103 0.015490851 149 121 91
0.8354449 -0.2610096 0.02183531 162 136 104
0.8235572 -0.29315087 0.034133 129 109 81
0.80907196 -0.32204723 0.047774285 156 128 98
0.7994174 -0.35441643 0.058581587 162 134 102
0.78499186 -0.38107908 0.071889944 178 155 120
0.77221894 -0.40825558 0.08414064 188 164 133
0.74857885 -0.4207179 0.101863764 183 158 121
0.73056334 -0.4375486 0.11632962 179 154 115
1.7872527 0.77545875 -0.8690016 146 114 57
1.7918525 0.69587237 -0.86312896 138 109 52
1.7915119 0.6126229 -0.8530819 92 81 56
1.792218 0.5279699 -0.84366286 204 177 147
1.780666 0.43913677 -0.82446325 193 140 67
1.7860264 0.3520908 -0.8182899 205 178 140
0.8567675 0.19486113 -0.095620364 160 123 88
0.8498851 0.15990222 -0.08629427 142 104 74
0.8470549 0.12484385 -0.08002722 149 110 76
0.8434094 0.08947395 -0.07310572 144 110 77
0.8396766 0.053807322 -0.06608309 96 76 58
0.83651525 0.017687803 -0.059440274 166 123 86
0.8348403 -0.019301653 -0.053821515 151 110 77
0.83365536 -0.057101857 -0.04847881 131 95 65
0.836087 -0.097270355 -0.04559821 179 160 131
0.8310453 -0.13473934 -0.037371837 95 83 68
0.8266915 -0.17281756 -0.029595079 150 126 99
0.8354989 -0.22018367 -0.030699639 91 69 51
0.83418816 -0.26223338 -0.02476181 173 151 120
0.8208645 -0.29501548 -0.010810628 135 105 78
0.8001931 -0.31989893 0.0077799293 162 136 106
0.7960674 -0.35907993 0.015513492 151 124 98
0.7826495 -0.3884677 0.029136967 191 167 134
0.7648873 -0.4114572 0.045300283 180 156 125
0.74603033 -0.43095574 0.06188257 184 158 122
0.724144 -0.44392276 0.07999251 161 139 108
1.7346487 0.7363792 -0.93847746 125 98 48
1.7353295 0.6539722 -0.9305599 86 74 54
1.7249954 0.56655884 -0.9128475 168 146 116
1.730251 0.48210615 -0.908573 204 176 149
1.7121338 0.39124793 -0.8839493 97 74 51
1.7300636 0.30447873 -0.8901127 209 180 141
1.6122087 0.20789233 -0.7808806 191 160 122
0.84874684 0.14013328 -0.1307642 151 115 90
0.8497249 0.102719314 -0.12773307 140 100 70
0.8492486 0.06454265 -0.12339817 136 95 66
0.8436233 0.026716199 -0.11476185 139 97 66
0.8405395 -0.011992532 -0.108175606 140 100 69
0.8371824 -0.051095467 -0.10131856 134 98 67
0.84153324 -0.09412036 -0.1005504 177 158 125
0.8381052 -0.13474023 -0.09347731 127 115 95
0.8339279 -0.17542078 -0.08576672 119 103 85
0.789208 -0.18882176 -0.04671418 106 88 66
0.79730517 -0.23639087 -0.04863371 132 114 93
0.78314453 -0.26747257 -0.033502296 159 135 109
0.7591465 -0.28800124 -0.011171322 170 146 116
0.76154846 -0.3324763 -0.008612061 155 127 98
0.7728133 -0.38842008 -0.012337132 174 148 116
0.75664425 -0.4144183 0.003962409 154 130 101
0.73561317 -0.43218625 0.02350957 168 141 111
0.7166286 -0.44992128 0.041329402 163 134 104
0.6883933 -0.45107308 0.0652333 155 127 99
1.6659163 0.77188534 -1.0029274 192 171 138
1.6700855 0.6920967 -0.9998877 199 173 136
1.6682214 0.6080067 -0.9908283 200 176 137
1.6660248 0.5221788 -0.98130673 207 182 154
1.6452454 0.43089277 -0.9539221 227 170 84
1.6494384 0.3437739 -0.95026684 206 179 141
1.6561931 0.25424576 -0.94879925 211 182 144
1.6661383 0.1617001 -0.9500545 211 184 146
1.6708564 0.06589901 -0.94613546 213 186 148
1.676749 -0.033034872 -0.9430429 214 187 150
0.9262639 0.021422934 -0.24553977 135 96 60
0.8862602 -0.014873891 -0.20495017 139 98 59
0.8515795 -0.04815829 -0.16960345 150 108 68
0.8422843 -0.088245444 -0.15741858 169 146 113
0.8355099 -0.12927589 -0.14751036 162 139 111
0.8310938 -0.17176127 -0.13968228 116 101 79
0.80757153 -0.20163058 -0.1150738 102 95 82
0.7333044 -0.18955211 -0.04663164 130 108 79
0.72273093 -0.2201956 -0.03407219 128 106 78
0.7053409 -0.24350876 -0.01577205 140 114 86
0.67787045 -0.25411835 0.010855424 120 63 51
0.67988867 -0.2941986 0.012453599 126 92 66
0.59014016 -0.22180966 0.090135455 198 143 85
0.56354123 -0.21704635 0.11461013 201 146 84
0.54293865 -0.21627657 0.13382131 193 139 74
0.5243202 -0.21499135 0.15113106 193 137 81
1.5865993 0.7217211 -1.0486184 213 177 132
1.590984 0.6420799 -1.0476637 210 177 133
1.5932019 0.5592896 -1.0442394 202 173 139
1.5967113 0.47453573 -1.0420213 200 175 142
1.5746055 0.3826869 -1.0126935 188 164 138
1.5782763 0.29454818 -1.010409 206 179 142
1.5869628 0.203898 -1.013163 209 182 144
1.5934789 0.10978868 -1.0134219 211 184 146
0.8980494 0.08793073 -0.2892342 27 24 26
0.89474714 0.042155847 -0.2826349 161 126 89
0.8574817 0.0045775007 -0.24130908 188 150 110
0.8417053 -0.03562556 -0.22213253 232 186 138
0.8209636 -0.07234831 -0.19803698 207 160 109
0.8245708 -0.11917708 -0.19854498 155 127 96
0.8103492 -0.15725774 -0.18113102 137 136 119
0.7872226 -0.18800594 -0.15497065 129 119 99
0.6994443 -0.16567837 -0.06529843 140 120 91
0.6795753 -0.18719175 -0.043162297 192 141 90
0.64190185 -0.18876113 -0.0039042195 193 139 84
0.6137298 -0.19406262 0.025738446 186 132 69
0.58866584 -0.19826235 0.052075017 195 138 76
0.5663319 -0.20165049 0.07551837 183 129 75
0.5444592 -0.20178133 0.09825702 153 110 68
0.52522224 -0.20188363 0.118254796 136 100 59
0.5080294 -0.20173238 0.13611078 135 100 63
0.4963606 -0.20792353 0.14866513 133 100 63
1.5102322 0.7523266 -1.1005125 179 156 121
1.5143462 0.67469805 -1.1014302 184 160 131
1.5173163 0.5941527 -1.100883 182 158 126
1.5205206 0.5112304 -1.100489 181 157 130
1.5209956 0.42513707 -1.0967876 151 133 114
1.4496976 0.32611293 -1.0095837 168 145 122
1.5083777 0.2450127 -1.073328 207 180 145
0.838938 0.15328643 -0.295913 24 18 19
0.63458794 0.1265354 -0.05866462 178 167 158
0.5980801 0.104683176 -0.0154365655 169 154 140
0.54349196 0.09237988 0.048194274 163 141 125
0.53069013 0.07502469 0.06383107 177 143 111
0.5346004 0.05242303 0.060432333 204 171 151
0.539299 0.028132875 0.056206733 168 145 125
0.5454346 0.0014984368 0.05043782 83 81 113
0.54429454 -0.021986451 0.052913412 125 123 140
0.54255307 -0.045504272 0.05608494 166 148 131
0.5362663 -0.06542047 0.06432627 191 179 173
0.5319255 -0.08674071 0.070390396 200 171 146
0.5838015 -0.16926238 0.014571709 126 93 64
0.5575029 -0.17013349 0.04497714 121 96 73
0.53929764 -0.17673178 0.06632142 145 116 90
0.5236242 -0.18369785 0.08476076 144 116 88
0.5079841 -0.18791056 0.103025615 141 111 79
0.49353984 -0.191188 0.11986372 134 104 73
0.4800378 -0.19338359 0.13556056 129 103 71
1.4569242 0.7146355 -1.1759229 195 166 133
1.4586633 0.6344458 -1.1759816 195 167 133
1.4605589 0.5519362 -1.1761785 197 169 135
0.9715598 0.3360161 -0.54247963 18 15 15
0.9608343 0.28275967 -0.5272648 10 7 9
0.9642042 0.23137212 -0.53019834 147 90 66
0.7408679 0.16989124 -0.24178149 43 38 36
0.7139725 0.1342854 -0.20628405 152 44 36
0.57838565 0.116152085 -0.03170718 195 182 170
0.5415754 0.09907053 0.016018035 160 122 110
0.5302711 0.08002975 0.03104825 258 253 251
0.53551203 0.055848736 0.024974823 195 82 65
0.53390974 0.033358607 0.027641876 192 180 171
0.5363958 0.008069798 0.025135571 126 120 113
0.5301544 -0.012477063 0.03370611 65 82 135
0.52763206 -0.035456922 0.03756774 89 100 144
0.53074706 -0.063748695 0.03433527 144 121 110
0.5220796 -0.08172277 0.04595108 137 122 110
0.51589763 -0.10139669 0.05442172 149 138 129
0.53777575 -0.1551842 0.027789878 140 109 81
0.52385366 -0.16663197 0.045975327 148 127 107
0.5098208 -0.17548087 0.064232595 164 161 147
0.49641812 -0.18275234 0.081637904 119 111 103
0.48260847 -0.18674767 0.09947704 157 148 130
0.46944627 -0.18914387 0.11644145 140 125 103
0.45880866 -0.19387749 0.13022785 141 120 94
