ply
format ascii 1.0
element vertex 1096
property float x
property float y
property float z
property uchar red
property uchar green
property uchar blue
element face 0
property list uchar int vertex_indices
end_header
0.32007763 -0.036281113 -0.242669 21 25 35
0.3166398 -0.05250343 -0.23998506 27 30 40
0.313174 -0.0695884 -0.23820172 13 18 27
0.30962473 -0.087616794 -0.23704696 11 15 25
0.30580288 -0.10539433 -0.23373891 11 15 23
0.30185503 -0.12356364 -0.23007658 5 8 14
0.29785812 -0.14351013 -0.22832716 5 7 14
0.29368815 -0.1642745 -0.2264442 3 5 11
0.28933188 -0.18510082 -0.22338419 1 4 8
0.28494304 -0.19663817 -0.20837946 44 43 44
0.28141233 -0.18425675 -0.16896372 3 5 9
0.27790222 -0.19043471 -0.15311398 17 20 23
0.27443725 -0.1996692 -0.14142658 6 10 13
0.27038208 -0.21951322 -0.1391552 12 15 18
0.265606 -0.247295 -0.14204663 11 14 15
0.25958058 -0.28690487 -0.15145186 7 11 17
0.2531969 -0.32604015 -0.15784392 130 131 130
0.24700868 -0.35983485 -0.15881188 135 135 132
0.42008373 0.12796152 -1.0410979 247 246 247
0.41169044 0.08586425 -1.0456301 246 245 246
0.400885 0.041809287 -1.0307026 226 223 225
0.39311564 -0.0044145514 -1.0497534 221 225 218
0.31697354 0.017216204 -0.26470414 48 55 69
0.31295457 0.0033835284 -0.25392526 47 52 63
0.3094415 -0.011326588 -0.24986412 34 39 50
0.30602226 -0.026989665 -0.24866734 28 33 44
0.30238444 -0.042695336 -0.24543099 19 25 36
0.29869372 -0.059232567 -0.24338244 17 22 33
0.29488063 -0.076447286 -0.24153067 13 16 26
0.29093546 -0.09475716 -0.24063574 12 16 25
0.28683043 -0.111786835 -0.2355646 7 11 16
0.28262806 -0.12986112 -0.23168565 5 9 17
0.27814993 -0.15169437 -0.23281923 5 7 15
0.27354327 -0.17258522 -0.23077337 5 7 14
0.26916608 -0.18904647 -0.22189075 6 9 17
0.26596102 -0.19282725 -0.19845028 8 9 9
0.2639696 -0.18743598 -0.1680386 4 6 12
0.26069736 -0.19706425 -0.15591612 13 15 18
0.25697908 -0.21109246 -0.14846265 2 6 12
0.25215995 -0.23378478 -0.1480381 17 20 26
0.24586469 -0.26663604 -0.15405113 21 25 31
0.23820676 -0.30763298 -0.16348417 86 88 91
0.23069063 -0.3457353 -0.16837074 138 143 142
0.22394487 -0.37730694 -0.16738144 141 141 142
0.37589264 0.14822406 -1.0224491 247 246 247
0.36703342 0.10851278 -1.0290681 247 246 247
0.35754323 0.06668477 -1.0333267 244 244 241
0.3463241 0.023367496 -1.0139562 246 247 247
0.33036458 -0.013376556 -0.88739073 238 238 235
0.2998397 0.01087203 -0.26907283 47 54 66
0.295956 -0.002830295 -0.25722185 43 46 58
0.2922837 -0.01785451 -0.2542469 33 39 50
0.28851625 -0.033243306 -0.2510964 28 32 43
0.28466508 -0.048664726 -0.24664456 25 29 38
0.28067213 -0.065466225 -0.24526224 15 21 30
0.2765217 -0.08295077 -0.24390651 15 18 28
0.2722062 -0.10112588 -0.24247687 9 12 22
0.26790467 -0.11847604 -0.23800361 7 11 19
0.26327363 -0.13796967 -0.23642863 5 9 16
0.25838017 -0.15875253 -0.23549941 7 11 18
0.2532689 -0.18042198 -0.23437554 5 7 13
0.24891458 -0.19686687 -0.22539656 49 47 53
0.24920192 -0.1854793 -0.18498296 5 7 16
0.24643852 -0.19368193 -0.17039289 31 35 38
0.24296567 -0.2062732 -0.16114335 59 58 59
0.23877874 -0.22288601 -0.15569387 19 26 28
0.23289561 -0.24851413 -0.15713248 153 156 156
0.22482786 -0.28521535 -0.16529977 27 32 38
0.21486346 -0.33097994 -0.17712057 147 152 153
0.20706405 -0.36479372 -0.17838202 147 152 153
0.3259809 0.12983279 -1.0191877 247 246 247
0.3158219 0.089833945 -1.0207373 229 233 233
0.3052126 0.048151366 -1.0208938 227 190 177
0.29406312 0.0055945585 -1.0005633 237 236 235
0.28631368 0.019161424 -0.27789924 52 59 71
0.2825724 0.0050115343 -0.2689344 49 54 66
0.2788308 -0.009226909 -0.26140565 36 44 54
0.27496094 -0.024181005 -0.25735688 31 36 47
0.2710331 -0.03933887 -0.25291198 26 33 41
0.2669854 -0.055011496 -0.24919061 24 29 38
0.262482 -0.07275463 -0.2500738 19 23 33
0.2578417 -0.090970114 -0.24988487 20 22 32
0.25321454 -0.10900055 -0.24750403 14 16 22
0.24850775 -0.12729917 -0.24439293 10 15 25
0.24358252 -0.14648262 -0.24171893 12 17 28
0.23833399 -0.1669898 -0.23993006 11 14 26
0.2330912 -0.18739104 -0.23677202 13 19 28
0.22951446 -0.20066008 -0.2239564 114 111 109
0.23142987 -0.19083841 -0.18622203 9 15 22
0.22826202 -0.20262848 -0.17549358 14 18 25
0.22451745 -0.21685429 -0.16756606 25 29 34
0.2195195 -0.23627934 -0.16416967 25 29 36
0.21262053 -0.26350707 -0.16628265 37 42 47
0.202234 -0.30497172 -0.1772304 128 136 138
0.19153515 -0.34753123 -0.1860098 155 162 163
0.18490638 -0.37330982 -0.18175542 157 162 164
0.2875903 0.14962521 -1.0083958 247 246 247
0.2771124 0.11085162 -1.0003198 247 246 247
0.26635808 0.071249165 -0.9940709 234 230 229
0.25527555 0.030569276 -0.98900765 208 211 207
0.24601078 -0.008448424 -0.9321644 247 246 245
0.26878026 0.012528958 -0.28521675 49 56 69
0.2652628 -0.0013766629 -0.27316853 43 50 62
0.26140827 -0.015945487 -0.2669954 38 43 54
0.25736615 -0.031025397 -0.26259875 33 38 50
0.25326782 -0.046328798 -0.25799698 28 35 44
0.24856415 -0.06339823 -0.25790507 21 28 37
0.24327046 -0.08233633 -0.2606659 40 41 52
0.23815908 -0.10093601 -0.26003474 24 28 37
0.23303139 -0.11971994 -0.2580903 19 21 31
0.2280166 -0.13826168 -0.25438833 19 22 34
0.2234705 -0.15540472 -0.24752346 11 16 28
0.2173684 -0.17752905 -0.24761489 12 16 30
0.21216376 -0.1968929 -0.24251224 59 61 67
0.21323496 -0.19587429 -0.2124088 20 27 36
0.21269447 -0.19982873 -0.19147088 37 40 46
0.20957212 -0.2121435 -0.18107837 148 153 152
0.20575765 -0.22672707 -0.17322415 108 111 111
0.19986771 -0.24827291 -0.17130981 86 89 91
0.19210157 -0.27623147 -0.17351677 43 46 50
0.17652763 -0.33082896 -0.19337307 164 169 169
0.16743317 -0.363704 -0.19454578 167 173 175
1.706678 0.08736533 -1.2457764 129 114 100
1.7028291 0.018402861 -1.2293401 124 110 96
1.7012076 -0.05258703 -1.2146561 125 109 94
1.7134817 -0.12747253 -1.2125226 125 109 93
1.7072321 -0.20292754 -1.1925923 127 111 94
1.6836038 -0.27627 -1.1564542 126 109 92
1.6480455 -0.34613445 -1.1095659 121 105 86
1.536721 -0.38784474 -0.99552333 124 112 95
1.4265625 -0.41897374 -0.88455224 123 113 95
1.2830034 -0.4225154 -0.74678534 101 92 80
1.1415168 -0.41048244 -0.6138794 116 107 91
1.008902 -0.38655397 -0.49164808 83 74 60
0.9353147 -0.38636148 -0.42140126 95 94 82
0.889299 -0.39818555 -0.37526435 70 63 50
0.84291506 -0.40434018 -0.32982484 114 86 57
0.8093848 -0.4166924 -0.29551485 122 91 58
0.7781602 -0.42747596 -0.2636973 125 92 58
0.75251204 -0.44067225 -0.23675929 132 100 64
0.7279168 -0.45217356 -0.21114054 133 100 64
0.6847603 -0.43663752 -0.17279685 133 167 134
0.65464586 -0.43239146 -0.14482057 100 84 66
0.630661 -0.43272182 -0.121851824 100 82 63
0.60803837 -0.43163458 -0.100446336 129 108 84
0.58908945 -0.43336082 -0.08202904 127 108 83
0.5716969 -0.43505162 -0.06510474 113 93 71
0.55969185 -0.44472864 -0.0518483 110 89 67
1.6393157 0.061164893 -1.2774034 126 113 99
1.6362287 -0.00909776 -1.2629514 124 110 96
1.6321737 -0.08139625 -1.2471741 125 111 97
0.7797915 -0.027538607 -0.37651396 13 17 25
1.2781001 -0.15975201 -0.8693549 77 69 62
1.6026663 -0.3068394 -1.1805819 123 107 89
1.5345311 -0.3658185 -1.1008372 125 111 93
1.4309765 -0.4047422 -0.9877709 125 113 94
1.3120018 -0.42537278 -0.861731 119 109 93
1.154109 -0.41103747 -0.7011515 116 108 92
1.0130084 -0.38649142 -0.5595317 113 105 89
0.9077733 -0.3675552 -0.45401052 87 75 59
0.8482849 -0.36931384 -0.39236164 78 75 61
0.8080671 -0.37965846 -0.34921503 72 63 49
0.77594894 -0.392582 -0.3140103 71 63 49
0.74611986 -0.40394512 -0.281417 103 74 50
0.70447385 -0.39815342 -0.23938479 153 177 141
0.6810384 -0.4084098 -0.21356452 111 82 55
0.6618126 -0.4212638 -0.19167031 111 81 54
0.6364709 -0.4229163 -0.1652635 98 75 58
0.61307967 -0.42368546 -0.14101033 114 89 65
0.591078 -0.42303112 -0.11841881 131 113 88
0.57467455 -0.42883933 -0.100566015 143 123 99
0.5594136 -0.434382 -0.08393437 89 70 55
0.5449226 -0.43915778 -0.068219915 78 59 49
0.50358844 -0.38114068 -0.034884486 128 128 125
1.569641 0.10355644 -1.3183557 129 116 102
1.5674431 0.03431639 -1.3067136 128 113 101
1.5616342 -0.03699282 -1.290762 125 112 98
0.862853 -0.02483232 -0.51152104 22 22 24
0.7493433 -0.037597124 -0.38298598 13 17 24
0.7484354 -0.06517987 -0.37831208 11 15 21
0.7501596 -0.094578765 -0.3763385 8 12 18
0.75531757 -0.12670991 -0.3778395 6 6 11
0.81720674 -0.186774 -0.43902907 98 93 81
0.8522081 -0.24317913 -0.47065812 81 81 78
0.8369438 -0.27600017 -0.44924664 71 69 63
0.86019135 -0.33486772 -0.4674149 62 59 49
0.80912906 -0.34178948 -0.4094369 73 70 57
0.76916105 -0.35134733 -0.36350656 76 67 54
0.7179099 -0.34463894 -0.30712578 102 112 105
0.69069946 -0.35540295 -0.27529144 78 67 56
0.67690164 -0.37812293 -0.25685883 102 80 62
0.65854746 -0.39402348 -0.23423943 104 82 62
0.6392939 -0.4065343 -0.21106474 117 97 75
0.61873645 -0.41454843 -0.18702954 108 85 65
0.59682435 -0.41727674 -0.16218188 83 65 47
0.5764554 -0.4190369 -0.13918713 107 85 63
0.5586612 -0.4221333 -0.11889211 114 93 70
0.47700572 -0.29048863 -0.045111142 125 128 128
0.47273746 -0.30686155 -0.038169425 123 124 123
0.4679236 -0.32213047 -0.030764451 118 119 117
1.4943055 0.07721248 -1.344081 130 117 105
1.4909933 0.006992549 -1.3329412 128 115 102
1.4819632 -0.06507376 -1.3146698 127 115 100
0.7280135 -0.022048263 -0.4033151 14 18 26
0.7249033 -0.049072873 -0.39679864 13 16 24
0.72470903 -0.07768689 -0.39366257 9 13 19
0.7251248 -0.10772981 -0.3911226 9 11 16
0.7261389 -0.1394154 -0.38914302 11 11 16
0.72727215 -0.17272888 -0.38714308 9 9 10
0.7868916 -0.24319436 -0.4524125 16 27 31
0.7596241 -0.26542014 -0.41704205 12 20 25
0.73304075 -0.28517893 -0.38275236 22 31 34
0.65634584 -0.25769937 -0.2923871 57 61 57
0.65523505 -0.29098767 -0.28766418 71 63 56
0.6534803 -0.3251261 -0.28207293 75 65 57
0.647047 -0.35518342 -0.27121297 80 67 54
0.63178694 -0.3741673 -0.2507547 90 68 55
0.6127174 -0.3860622 -0.22638811 94 48 42
0.5961674 -0.3991829 -0.20495735 104 84 64
0.5774711 -0.40634623 -0.1815236 101 85 67
0.46787074 -0.2411957 -0.065145925 124 127 127
0.46598464 -0.2614198 -0.060805377 118 119 118
0.4637296 -0.28178012 -0.056002934 115 114 111
0.46034276 -0.30036935 -0.050005432 112 112 107
0.4566643 -0.3187802 -0.04367175 113 113 108
0.4509101 -0.3319643 -0.035346683 112 109 105
1.4236052 0.11947326 -1.3824319 131 118 108
1.4170473 0.05045393 -1.3692096 130 117 104
1.4120885 -0.020698637 -1.3579669 128 115 102
1.3971595 -0.092989154 -1.3334363 129 115 101
0.70459706 -0.0335987 -0.4195163 10 14 22
0.7004155 -0.06117356 -0.41216442 13 15 23
0.6987216 -0.090279676 -0.40800866 9 11 18
0.6979567 -0.12090006 -0.40498465 8 9 13
0.69688606 -0.15271847 -0.40147695 9 9 12
0.7667478 -0.22856094 -0.4890821 17 26 28
0.6433795 -0.18500717 -0.32844752 43 62 58
0.6545795 -0.22603895 -0.34059662 15 16 17
0.6321469 -0.24097423 -0.30988714 31 35 35
0.6197699 -0.263032 -0.2920363 73 73 69
0.6163977 -0.29425406 -0.28551754 71 63 55
0.6133834 -0.3271168 -0.27936542 76 64 53
0.60590523 -0.35526115 -0.26760727 96 77 57
0.572858 -0.34519514 -0.22447217 83 59 58
0.46374136 -0.20240039 -0.089240015 104 106 105
0.45926577 -0.21728194 -0.08233169 95 95 90
0.45605683 -0.2347283 -0.07693371 97 97 92
0.45365846 -0.25443807 -0.072461285 103 101 96
0.45250082 -0.27793396 -0.06938457 106 104 99
0.44995773 -0.2993997 -0.064605065 109 107 101
0.44534668 -0.31621316 -0.057390396 111 109 103
0.44023532 -0.33173046 -0.049597856 113 110 106
1.3485681 0.093313865 -1.4107717 101 87 79
1.3399168 0.023290152 -1.3964838 98 83 73
1.3350742 -0.04904327 -1.3876714 101 86 76
0.5052338 0.011498041 -0.18373519 36 38 45
0.50337476 -0.0028407935 -0.18068226 14 16 22
0.506569 -0.019235231 -0.18491922 1 5 11
0.5020663 -0.033794142 -0.17802072 4 6 13
0.49837264 -0.048788134 -0.17228678 2 4 8
0.4967364 -0.065192536 -0.1695067 1 4 8
0.49465373 -0.08190049 -0.16607073 3 3 8
0.49469003 -0.10087535 -0.16565707 4 6 12
0.4965609 -0.12261674 -0.16784024 1 2 5
0.49657255 -0.14406599 -0.1673299 2 3 6
0.49515328 -0.16516633 -0.16474964 3 3 6
0.4920908 -0.18519421 -0.15980874 3 3 6
0.47868428 -0.19109823 -0.14018933 3 6 7
0.4629404 -0.19091916 -0.117324196 69 67 69
0.45780745 -0.20586437 -0.109500736 75 74 74
0.45318523 -0.22171968 -0.102396734 80 79 77
0.4492735 -0.2391835 -0.09628531 90 87 83
0.4448057 -0.25577685 -0.0893875 76 71 68
0.44092137 -0.27406183 -0.08329567 67 66 62
0.43902177 -0.2983409 -0.079939514 107 105 98
0.43434727 -0.315864 -0.07271859 110 108 102
0.4282201 -0.32888186 -0.06349831 109 109 104
0.4221323 -0.3414696 -0.054345746 112 110 103
1.2861838 0.13624139 -1.4604892 90 60 54
1.2840599 0.0669708 -1.4586946 88 56 50
0.88789105 0.01423892 -0.8257839 20 29 43
0.4870705 0.020682812 -0.18405624 10 13 25
0.4836441 0.007236938 -0.17888327 102 97 96
0.48498377 -0.0077748955 -0.18137546 15 19 27
0.48483223 -0.023238726 -0.1814912 14 15 22
0.48224667 -0.038350437 -0.17770275 9 13 19
0.4802716 -0.054224722 -0.17490914 10 12 19
0.47801074 -0.07047137 -0.1716667 11 13 19
0.4767226 -0.088063575 -0.17001244 6 8 13
0.475464 -0.10652951 -0.16842572 8 8 15
0.47413123 -0.12585212 -0.16674013 6 6 11
0.47456056 -0.14829639 -0.1679474 4 5 8
0.474047 -0.1711024 -0.16765386 9 9 14
0.47208893 -0.1932419 -0.16503264 1 2 4
0.45397764 -0.189511 -0.13595612 36 33 35
0.4460739 -0.20015895 -0.12355156 13 12 13
0.43891272 -0.21123032 -0.112345554 27 27 29
0.4316083 -0.22105424 -0.100881256 11 11 11
0.42551193 -0.2327902 -0.09139494 9 10 10
0.4227482 -0.25305486 -0.087440684 74 73 70
0.422353 -0.2816036 -0.08746963 77 73 64
0.42098 -0.30960494 -0.08592076 105 103 96
0.41563335 -0.3255001 -0.07773084 110 108 101
0.40940756 -0.33776438 -0.06804963 111 110 103
0.8351191 0.08182878 -0.8281392 65 53 58
0.82866615 0.040850822 -0.81993836 16 23 35
0.8265177 -0.0016230562 -0.81949645 15 22 35
0.46964908 0.01578878 -0.18469109 14 17 29
0.46975026 0.0014666426 -0.18600763 65 64 71
0.47085962 -0.014075595 -0.18921037 27 29 34
0.4700889 -0.02987438 -0.18909648 60 61 62
0.4682993 -0.045911834 -0.18719311 18 15 17
0.46640337 -0.062544264 -0.18514822 58 55 56
0.46358445 -0.079126745 -0.1814611 63 61 63
0.46039647 -0.09589095 -0.17713332 54 53 56
0.45673615 -0.11262152 -0.1719645 96 91 92
0.4535818 -0.13037904 -0.16777529 31 28 30
0.45624715 -0.1569889 -0.17461835 8 10 14
0.4553737 -0.18070447 -0.17495058 1 2 5
0.45258155 -0.2027143 -0.17174183 3 3 6
0.43295553 -0.19224294 -0.13607547 91 85 78
0.4254372 -0.20233575 -0.12353195 0 1 3
0.4182007 -0.21188806 -0.1114458 1 3 5
0.41169795 -0.22219118 -0.10072161 1 3 5
0.4069364 -0.23678796 -0.093428805 4 7 9
0.40669158 -0.2666614 -0.09536562 1 3 6
0.40631273 -0.2993861 -0.097290814 102 102 98
0.40171552 -0.31833816 -0.090635374 108 106 100
0.39626566 -0.3339343 -0.08220021 110 108 102
0.3902024 -0.34616286 -0.072408915 109 107 100
0.7887284 0.10573475 -0.8382049 83 71 75
0.7844983 0.06602899 -0.83563346 74 61 65
0.78057766 0.024773007 -0.83390296 32 33 43
0.46100238 0.023463516 -0.20034616 16 22 33
0.45662466 0.010017388 -0.19363473 27 31 36
0.45642 -0.004826333 -0.19540368 38 38 44
0.45495242 -0.02003226 -0.19472112 92 86 87
0.45272884 -0.035528466 -0.19258188 58 53 54
0.450695 -0.051759236 -0.19092649 72 69 69
0.44941774 -0.069342166 -0.1909696 64 62 62
0.44640055 -0.086238906 -0.1874618 66 65 66
0.44235075 -0.10254469 -0.18181954 60 59 61
0.438421 -0.11931372 -0.17648333 50 49 50
0.43846276 -0.14244343 -0.17995484 5 6 10
0.4375463 -0.16599803 -0.1815884 7 10 14
0.43565005 -0.1895816 -0.18128313 3 6 8
0.42527747 -0.19644903 -0.16171947 33 31 35
0.41262394 -0.19515471 -0.13643666 20 19 21
0.4053158 -0.20416002 -0.12326332 2 3 5
0.39852557 -0.21320389 -0.11112257 2 2 5
0.39276806 -0.2243599 -0.10133943 4 4 7
0.3894691 -0.24416897 -0.09769941 5 8 12
0.38935825 -0.27915505 -0.10260532 28 33 32
0.38702297 -0.30835447 -0.10225228 104 102 98
0.38159207 -0.32391915 -0.09376262 108 106 100
0.3763991 -0.34075758 -0.085931495 108 106 100
0.741686 0.090499125 -0.8510903 71 57 59
0.73740304 0.050332725 -0.8506749 78 74 74
0.7303907 0.008643512 -0.84450376 28 33 46
0.4459852 0.018016992 -0.20642409 19 23 37
0.4442545 0.0036101842 -0.20584017 39 41 49
0.441067 -0.0108272005 -0.20200574 75 72 75
0.43540436 -0.024225086 -0.19239971 105 100 101
0.43283147 -0.03946073 -0.19012168 116 113 113
0.4309444 -0.055866785 -0.18964405 45 40 40
0.42862517 -0.07272012 -0.18830214 6 3 4
0.42536375 -0.089291364 -0.18478915 70 69 70
0.4224749 -0.10697606 -0.18236318 33 30 30
0.4197307 -0.12573396 -0.18050547 47 42 42
0.4207619 -0.15251881 -0.18892059 74 71 69
0.41865477 -0.17585732 -0.18953207 7 10 12
0.41479948 -0.19687499 -0.18570526 2 5 9
0.40152392 -0.1931909 -0.15518041 35 34 36
0.39263716 -0.19745868 -0.13628268 14 13 14
0.38571504 -0.20550445 -0.12263955 40 39 37
0.3795506 -0.21464005 -0.11093941 2 5 7
0.37514815 -0.23025502 -0.10465694 4 7 9
0.37230393 -0.25432754 -0.10378767 5 8 10
0.37097764 -0.2903137 -0.10902995 71 73 75
0.36699644 -0.3144607 -0.1056354 107 104 100
0.35402367 -0.2688822 -0.06623205 91 54 44
0.34935644 -0.28004676 -0.05834234 83 39 29
0.70118314 0.11450003 -0.8689134 72 85 111
0.69462013 0.07515765 -0.8651346 40 48 62
0.68689126 0.034484483 -0.85882115 36 40 56
0.62339264 0.00025694314 -0.70817333 69 72 79
0.430996 0.0123564275 -0.21358146 28 33 44
0.42852727 -0.0022234402 -0.21208793 34 36 43
0.4232632 -0.015863655 -0.20315687 97 92 93
0.4195468 -0.03035555 -0.19845273 109 106 106
0.41726145 -0.04636786 -0.19789857 83 80 81
0.41671622 -0.06508016 -0.20267074 15 15 20
0.41381162 -0.08249537 -0.2009996 10 12 18
0.41121733 -0.101261556 -0.20056444 7 9 15
0.40836006 -0.12075717 -0.19969903 3 5 9
0.40565082 -0.14180653 -0.19972275 3 3 8
0.40233618 -0.16300575 -0.19825211 3 3 6
0.3988596 -0.1852194 -0.19670264 1 2 5
0.39148632 -0.19681087 -0.18171841 1 2 4
0.3804722 -0.19346794 -0.15253183 1 1 4
0.3731085 -0.19915661 -0.13562794 -1 0 2
0.36664072 -0.20607188 -0.12141255 11 12 14
0.3614292 -0.21744953 -0.11187049 5 5 9
0.35762376 -0.23706594 -0.10862698 2 5 7
0.3548504 -0.26671863 -0.11132064 48 50 49
0.352303 -0.3045092 -0.11727046 113 110 108
0.3415429 -0.25802892 -0.074524865 99 68 64
0.33716908 -0.27150452 -0.067809805 61 44 46
0.813892 0.1261638 -1.341145 246 245 245
0.6507383 0.059829984 -0.8902448 57 66 80
0.63431454 0.018817022 -0.8605926 37 43 58
0.416925 0.021195106 -0.2182028 33 38 51
0.41592622 0.0064070607 -0.22203445 39 42 54
0.41226947 -0.008090584 -0.21789181 24 31 43
0.409597 -0.023593012 -0.21711351 20 25 36
0.406715 -0.039657697 -0.21597475 17 20 30
0.40397224 -0.05666128 -0.21567716 15 17 27
0.39961094 -0.07244106 -0.21004394 14 13 22
0.3957015 -0.089240946 -0.20621109 7 9 16
0.39336562 -0.10972974 -0.20871127 3 5 12
0.39025706 -0.13029814 -0.20896837 4 4 9
0.38647315 -0.15068501 -0.20715007 3 3 8
0.38237643 -0.17148957 -0.20460035 2 2 7
0.37809658 -0.19305125 -0.20185752 1 2 4
0.3693449 -0.19643703 -0.17759186 36 33 35
0.3604864 -0.194107 -0.15039122 1 2 5
0.3540944 -0.19996376 -0.13421926 51 52 53
0.3485703 -0.20850933 -0.12184002 52 52 49
0.34388277 -0.22205012 -0.11421813 6 8 10
0.34016967 -0.24655922 -0.1144981 84 83 82
0.33660457 -0.279478 -0.11906915 7 10 12
0.3299142 -0.26092115 -0.09082723 106 82 79
0.3247165 -0.25407305 -0.07235512 100 61 51
0.32043862 -0.2648047 -0.064654194 100 58 45
0.75273114 0.16022818 -1.3556981 246 245 245
0.7431323 0.10363264 -1.3578837 184 196 204
0.59877944 0.04394158 -0.8934542 52 63 80
0.576034 0.004328568 -0.8392558 42 49 64
0.40244466 0.015315226 -0.22875588 31 38 51
0.39790964 0.0014387605 -0.22170632 39 41 53
0.394274 -0.013051577 -0.2181696 27 33 44
0.39010614 -0.027434463 -0.21271507 32 36 42
0.38731906 -0.043663014 -0.21322109 18 19 30
0.38424572 -0.06051451 -0.21312349 17 17 28
0.38069206 -0.07757249 -0.21148516 13 13 22
0.37769958 -0.09685822 -0.21319827 9 9 16
0.37490898 -0.11844109 -0.21705659 6 6 11
0.3708275 -0.13829346 -0.21533902 4 5 10
0.36645997 -0.15854631 -0.2128783 3 3 8
0.36195397 -0.17973095 -0.21052179 3 3 8
0.35626265 -0.19594616 -0.20092116 3 6 10
0.3481395 -0.19415751 -0.17155176 99 92 88
0.34145552 -0.19555792 -0.14919052 3 3 8
0.33591408 -0.2018057 -0.13384785 2 2 7
0.3310016 -0.2118965 -0.12310704 3 6 9
0.32661024 -0.23037414 -0.11944818 5 7 11
0.32226858 -0.25781035 -0.12159122 12 14 18
0.3173679 -0.26565865 -0.109482415 96 65 50
0.31293398 -0.24357373 -0.080187775 143 104 89
0.30877957 -0.25442994 -0.07256379 123 84 70
0.68429136 0.13851722 -1.3768976 197 213 221
0.67643 0.081450604 -1.3930782 172 171 177
0.6525008 0.021679884 -1.3440508 112 87 89
0.38769388 0.02443589 -0.2285674 37 44 55
0.38470164 0.010322928 -0.22816332 42 48 59
0.38071066 -0.0037409447 -0.22351879 31 36 47
0.37630802 -0.017645044 -0.21700612 41 45 51
0.3729514 -0.032962706 -0.21610963 41 43 50
0.36944565 -0.048871383 -0.2150961 12 17 28
0.36597 -0.06579128 -0.21508136 9 12 22
0.3627802 -0.08475308 -0.21802963 5 9 17
0.35942495 -0.10525846 -0.22161372 13 13 20
0.35538965 -0.12555069 -0.22215556 8 8 15
0.35084912 -0.14550748 -0.2202843 5 5 10
0.34605873 -0.16585122 -0.21769641 2 4 10
0.3411521 -0.1875231 -0.21576568 2 2 6
0.3350359 -0.19796385 -0.19906251 38 37 40
0.32844055 -0.19332793 -0.16734038 1 3 6
0.32312745 -0.19772756 -0.14880212 3 3 7
0.3182979 -0.205033 -0.13480286 2 3 5
0.31370392 -0.21775958 -0.12647016 10 10 12
0.3089671 -0.23904312 -0.12491838 60 59 56
0.30351484 -0.2738931 -0.13206126 10 12 16
0.30093867 -0.24130893 -0.093125515 171 135 124
0.29606384 -0.26392674 -0.09214434 37 14 17
0.29176039 -0.27601826 -0.08448504 108 72 55
0.6449728 0.179733 -1.4799643 245 245 243
0.6352223 0.121520184 -1.4987993 246 245 245
0.6075062 0.058565676 -1.4287081 246 245 245
0.4676214 0.01749309 -0.7413125 56 61 74
0.3706395 0.0194966 -0.22798643 39 46 59
0.36744905 0.005364974 -0.22822073 45 48 60
0.36337695 -0.008605923 -0.22361669 29 34 46
0.35974798 -0.0235102 -0.22247283 25 30 39
0.355972 -0.03894369 -0.22119273 15 20 32
0.3518732 -0.05446661 -0.2183195 12 17 28
0.3481801 -0.072229706 -0.22028524 10 13 23
0.34451485 -0.0922764 -0.22515164 6 8 17
0.34044874 -0.113405496 -0.2292118 38 37 42
0.3355995 -0.13219263 -0.22632195 8 8 15
0.33066982 -0.15257953 -0.22493738 5 6 11
0.32550856 -0.17353474 -0.22301841 4 4 9
0.32010725 -0.19411176 -0.21937852 5 7 13
0.31458518 -0.19955106 -0.19684729 43 42 43
0.30976623 -0.1953969 -0.16645096 28 29 30
0.30526277 -0.20143163 -0.15000379 4 4 7
0.30087614 -0.21046886 -0.137793 0 3 5
0.29620814 -0.22565804 -0.1315189 9 13 16
0.2905077 -0.25285986 -0.13429247 11 11 16
0.28300738 -0.29580623 -0.14657128 51 55 59
0.27703875 -0.31878018 -0.1428335 86 69 65
0.2782938 -0.2780962 -0.10038219 113 79 67
0.6015047 0.16997242 -1.6821756 79 87 96
0.5692872 0.099779174 -1.5807086 60 69 85
0.44523317 0.03815933 -0.82322365 55 62 77
0.4325984 0.0020996167 -0.7984287 131 105 113
0.35446906 0.014282545 -0.2317317 40 47 60
0.3506296 0.00034083694 -0.22944207 37 42 53
0.3468089 -0.014210697 -0.22835535 29 34 45
0.3429143 -0.02945938 -0.22797802 23 29 40
0.33887258 -0.04540825 -0.22780502 20 23 35
0.33458698 -0.061711896 -0.2265534 13 18 29
0.33042917 -0.081025146 -0.23148401 10 14 24
0.32583565 -0.1005868 -0.23381041 7 9 15
0.32086942 -0.11915705 -0.23179275 6 7 14
0.3157225 -0.13923347 -0.23116168 6 8 14
0.31033772 -0.16007471 -0.23021474 4 6 12
0.30472824 -0.18135941 -0.2284793 3 5 10
0.29912972 -0.19982053 -0.22185701 3 5 9
0.29528028 -0.19682951 -0.18973337 5 5 8
0.29144916 -0.19971262 -0.168063 20 20 21
0.28755167 -0.20622623 -0.15231115 3 6 10
0.2832927 -0.2172813 -0.14201966 4 6 10
0.2780398 -0.23631527 -0.13881624 7 10 14
0.27030006 -0.2721181 -0.14773317 15 15 20
0.26100704 -0.31579217 -0.1596455 128 129 128
0.2636877 -0.28156906 -0.11819708 147 115 103
0.26245672 -0.2752085 -0.09842499 156 120 112
0.67428815 0.31208557 -2.8118525 246 245 246
0.65860295 0.21345863 -2.927393 246 245 246
0.49390644 0.07544388 -1.6355623 110 119 119
0.42926103 0.017988749 -1.1376637 82 83 92
0.34217757 0.022714712 -0.23775247 50 54 68
0.33827657 0.0089381905 -0.2364791 46 52 63
0.33417326 -0.0051087737 -0.23390071 37 42 53
0.33004096 -0.019837648 -0.23293018 29 34 45
0.32580572 -0.035472438 -0.23343983 23 28 37
0.32141644 -0.052578054 -0.23648544 17 22 33
0.31674632 -0.071254835 -0.24105689 16 19 29
0.31175148 -0.09018042 -0.24301578 13 14 25
0.306672 -0.10654579 -0.2369681 9 11 17
0.30130088 -0.12596242 -0.23646629 6 8 15
0.29564798 -0.14660001 -0.23650269 5 7 14
0.28978288 -0.16766451 -0.23557 3 5 12
0.2836361 -0.18978707 -0.2347217 3 5 9
0.2788508 -0.20187016 -0.21971785 46 45 46
0.2764018 -0.20009781 -0.18983461 2 4 8
0.2733206 -0.20419076 -0.16988324 12 15 18
0.2697456 -0.21216889 -0.15574694 10 13 17
0.26531893 -0.22529021 -0.14729291 18 21 25
0.25886592 -0.24898174 -0.1477053 14 17 19
0.2491499 -0.28841823 -0.15883476 2 4 10
0.23865405 -0.3302901 -0.1688201 137 142 142
0.24518168 -0.29012927 -0.12320366 164 141 134
0.57151556 0.2998247 -3.2126012 246 245 246
0.53660643 0.18047409 -3.21945 246 245 246
0.50960875 0.05676301 -3.3950188 247 246 248
0.43896785 -0.055217817 -2.7066627 246 245 246
0.32595265 0.017778216 -0.23846263 47 54 68
0.32187313 0.0036602733 -0.240187 42 47 61
0.3175659 -0.010829704 -0.23975286 35 40 51
0.3130959 -0.025725372 -0.23853289 29 34 44
0.30840743 -0.041905466 -0.24026942 22 28 39
0.30338222 -0.05965296 -0.24432866 19 24 35
0.29814303 -0.07765977 -0.24586934 14 17 27
0.2927224 -0.09599586 -0.24586792 12 15 23
0.28726533 -0.11397925 -0.2432861 10 12 20
0.28144506 -0.13352424 -0.24250901 9 11 18
0.27532768 -0.1541311 -0.2420408 8 11 19
0.26889077 -0.17585601 -0.24177352 7 9 17
0.26240167 -0.19744556 -0.23981616 12 16 23
0.25948897 -0.20301959 -0.21661967 96 93 91
0.25763872 -0.20464018 -0.19147548 33 34 35
0.2550607 -0.20997046 -0.17309576 10 15 20
0.25178468 -0.21856505 -0.1596121 40 41 42
0.24658516 -0.23514895 -0.15416662 20 24 30
0.23853542 -0.26301935 -0.15763856 31 35 41
0.22654018 -0.30603227 -0.17084779 86 90 96
0.2156232 -0.34419626 -0.17754316 150 155 156
0.20690626 -0.37345004 -0.17627978 152 156 154
0.457893 0.36606017 -3.2082868 246 245 246
0.42269644 0.25334808 -3.2474046 246 245 246
0.3856502 0.13406767 -3.3053274 246 245 246
0.34495503 0.0069133854 -3.2683296 218 220 215
0.3137866 0.020886226 -0.3480702 60 67 69
0.30977023 0.012006598 -0.2491205 50 56 68
0.3052548 -0.0022301998 -0.24834226 40 47 60
0.30064768 -0.016694061 -0.24593692 35 40 51
0.29580483 -0.03197598 -0.24543066 30 35 46
0.2904966 -0.048872903 -0.24868296 24 29 40
0.2849526 -0.06647753 -0.25097194 23 27 37
0.2793906 -0.08403198 -0.250476 21 23 33
0.27365923 -0.10210034 -0.249431 14 18 28
0.26758635 -0.12127747 -0.24915849 13 17 27
0.26118925 -0.14149009 -0.24917214 12 15 25
0.25460747 -0.1622592 -0.24848318 8 13 22
0.24784154 -0.18358678 -0.24719119 7 11 18
0.2418846 -0.20216493 -0.24087708 51 53 57
0.24033819 -0.20609653 -0.21609157 10 11 18
0.23918904 -0.20882879 -0.1927582 11 15 23
0.23684902 -0.21558203 -0.17613375 120 120 121
0.23311771 -0.22695667 -0.16536339 142 146 146
0.22727512 -0.24525645 -0.16120209 130 131 132
0.21726862 -0.27711663 -0.16753827 44 48 54
0.20148283 -0.3276964 -0.18580979 158 165 166
0.19088122 -0.36129424 -0.18844157 158 165 168
1.6925887 0.010955191 -1.0819517 140 122 105
1.7336712 -0.056018345 -1.1071893 136 120 102
1.7779018 -0.12980339 -1.1340878 138 119 105
1.8293912 -0.21193776 -1.1660122 139 121 104
1.8902024 -0.30444795 -1.2044468 138 120 101
1.9538964 -0.40759814 -1.2436866 131 113 94
1.9104182 -0.48583093 -1.192729 135 123 104
1.8634806 -0.561318 -1.1391761 134 122 104
1.8400824 -0.6456143 -1.1048914 106 98 83
1.7860922 -0.7150292 -1.0461235 128 117 100
0.8897442 -0.28601697 -0.32762492 107 100 85
0.76866436 -0.24517325 -0.22778712 116 115 102
0.7521521 -0.2648211 -0.21007092 91 81 65
0.7316464 -0.28015766 -0.18954405 110 87 60
0.7155353 -0.2976141 -0.17253691 137 103 70
0.7030873 -0.3174682 -0.15836133 133 98 63
0.6954741 -0.3418669 -0.1476986 142 106 67
0.6861596 -0.3645379 -0.13582061 142 106 67
0.6752896 -0.38517773 -0.12290496 146 109 69
0.66217726 -0.40235364 -0.10858071 150 112 72
0.65014523 -0.42019293 -0.09509859 147 110 72
0.6435634 -0.44595864 -0.085120484 146 111 74
0.63705784 -0.4723808 -0.075102754 144 124 97
0.6248135 -0.4887828 -0.061667603 134 143 127
0.7280405 -0.7339532 -0.11257857 127 109 83
0.76727015 -0.87565696 -0.1240344 123 102 78
1.6720444 -0.01332387 -1.153156 136 121 103
1.7044144 -0.083886005 -1.174273 135 119 101
1.7439814 -0.16157578 -1.2012476 138 119 103
1.7883979 -0.24749072 -1.2317046 139 121 104
1.8432038 -0.34432063 -1.2705325 135 118 97
1.8783392 -0.44502872 -1.2901781 135 122 101
1.8250479 -0.5207588 -1.2293504 136 124 103
1.7773932 -0.5962643 -1.1738994 131 119 100
1.7398404 -0.67478216 -1.1276201 128 117 100
1.6686516 -0.7329636 -1.0522017 129 121 103
0.8269541 -0.28122225 -0.31527588 98 84 66
0.74726975 -0.2608319 -0.24247138 104 102 88
0.72713286 -0.27774557 -0.22107615 105 83 55
0.7101398 -0.29571512 -0.20251915 132 99 61
0.69759834 -0.3167514 -0.18776767 138 105 69
0.68718344 -0.33949512 -0.17480116 138 104 68
0.6768818 -0.36214963 -0.16195412 143 107 66
0.66673297 -0.38478312 -0.14925486 147 110 69
0.6552548 -0.40534523 -0.13557617 138 111 82
0.6712676 -0.46728313 -0.14235103 133 108 83
0.67581713 -0.5166643 -0.13995923 127 142 130
0.85608363 -0.8837551 -0.26107082 139 122 97
0.8500262 -0.9460645 -0.24686345 106 85 64
0.82734734 -0.9769356 -0.22116181 121 99 73
0.79811954 -0.9911534 -0.19151075 130 107 80
0.7758606 -1.0177985 -0.16678128 138 115 94
1.615049 0.029019756 -1.2030375 138 124 107
1.6433606 -0.039540637 -1.2247999 137 121 105
1.672033 -0.11401545 -1.2463052 135 119 102
1.7002412 -0.19469956 -1.2666771 137 121 103
1.7391744 -0.28449008 -1.2970799 136 118 99
1.79708 -0.38823372 -1.3454559 135 115 95
1.778045 -0.47597232 -1.3166432 137 124 103
1.7284786 -0.5525381 -1.2577114 137 124 103
1.6846323 -0.6295196 -1.2046003 116 106 88
1.6460338 -0.7077507 -1.1567372 130 120 102
0.83019775 -0.2807019 -0.36553738 93 82 67
0.7397351 -0.25486776 -0.27552646 103 98 81
0.73033637 -0.2817574 -0.26304102 77 68 52
0.71865565 -0.30671787 -0.24842034 79 68 54
0.70414233 -0.3285483 -0.23122716 80 70 55
0.68728185 -0.34689692 -0.21199645 115 84 58
0.6714143 -0.364985 -0.19381136 117 85 53
0.66195875 -0.39022237 -0.18144277 123 93 62
0.687363 -0.46607667 -0.19945143 128 157 145
1.0075699 -1.0166569 -0.46940967 119 94 71
0.9609904 -1.0285252 -0.42039567 101 83 65
0.89940566 -1.005008 -0.35974666 143 123 96
0.8871838 -1.0683762 -0.34050155 93 69 54
0.8576236 -1.0961006 -0.30725673 91 69 55
0.83189654 -1.1292248 -0.2773698 106 85 67
0.7994375 -1.1424166 -0.2426928 152 129 103
1.5870683 0.0045329845 -1.2802007 139 125 110
1.6138276 -0.0682213 -1.304666 137 121 106
0.7499609 -0.021062097 -0.34798822 17 23 30
0.75607866 -0.047609445 -0.3528626 12 16 20
1.5064126 -0.27572128 -1.1702414 138 120 104
1.6424944 -0.40044063 -1.3124393 137 123 103
1.6757941 -0.50652647 -1.3417568 138 125 104
1.6230778 -0.5807848 -1.2777842 137 125 106
0.8671687 -0.25801533 -0.4610725 76 76 73
1.2306767 -0.5351462 -0.84498066 120 113 99
0.7792836 -0.2832284 -0.36156934 81 68 53
0.7241757 -0.27827215 -0.30068207 90 83 67
0.71194065 -0.30430833 -0.28519648 88 76 59
0.69919986 -0.32950595 -0.2692095 88 76 58
0.68563515 -0.3533104 -0.25240782 109 89 69
0.67822707 -0.3840957 -0.24194255 113 150 147
1.0555665 -0.94287837 -0.6208022 125 104 78
1.0177443 -0.9802462 -0.5760574 130 111 82
0.98335034 -1.0191016 -0.5350151 100 80 60
0.94902253 -1.0545199 -0.49429533 102 79 58
0.9050682 -1.0671802 -0.44452688 119 96 71
0.8669444 -1.0845163 -0.4008993 92 65 53
0.83277965 -1.104556 -0.36147574 91 63 51
0.80030596 -1.1231911 -0.32403353 86 64 52
0.7768375 -1.1608889 -0.29521772 140 120 96
0.70001423 -1.0370992 -0.21881191 148 134 120
1.5297267 0.04876881 -1.3348107 142 128 112
1.5527933 -0.022084255 -1.3602265 140 126 110
1.2416558 -0.062241264 -0.982795 33 34 35
0.7213038 -0.029449103 -0.35504445 18 22 30
0.7295314 -0.05713329 -0.36402622 15 19 25
0.73726624 -0.08712299 -0.37233233 11 16 21
0.7473452 -0.120597206 -0.3833504 13 14 20
0.76000386 -0.15842253 -0.39733505 14 15 18
0.8117518 -0.221524 -0.45768404 62 65 65
0.78935206 -0.24845944 -0.42967606 28 37 39
0.7665138 -0.2733062 -0.40121076 27 35 38
0.7411063 -0.29401734 -0.36978388 60 62 57
0.7106569 -0.3073079 -0.33252135 72 68 61
0.66242105 -0.29798728 -0.2745481 83 106 96
0.6488337 -0.32010993 -0.2573579 95 82 68
1.0384786 -0.8590168 -0.70955056 116 93 72
1.0159771 -0.9208213 -0.68020785 93 50 46
0.984238 -0.96847636 -0.6401924 101 55 49
0.95225614 -1.0131676 -0.5999867 121 101 79
0.917571 -1.049842 -0.55679226 104 86 66
0.87382114 -1.0635548 -0.5034403 115 92 67
0.8382935 -1.0875074 -0.45966977 112 88 65
0.7641265 -1.0100158 -0.3727253 98 83 73
0.45512453 -0.27285895 -0.024885656 136 137 136
0.4520981 -0.29307494 -0.020525465 132 134 129
0.45049098 -0.3191471 -0.017677138 133 130 126
1.4938426 0.024055114 -1.4186124 143 129 115
1.5037082 -0.050276976 -1.4322348 141 126 112
0.69466573 -0.013340015 -0.36471117 24 26 34
0.6982351 -0.039071657 -0.3696302 19 21 29
0.7045885 -0.06746334 -0.37824354 15 16 25
0.7114044 -0.0984746 -0.3874884 12 14 21
0.7200005 -0.13301744 -0.39911044 10 10 15
0.7295845 -0.17137285 -0.41206694 13 12 15
0.7737327 -0.23520488 -0.47082603 18 29 32
0.74957824 -0.26031297 -0.43916917 21 30 32
0.6895331 -0.2532256 -0.3599045 71 102 93
0.66409075 -0.26817763 -0.32646555 63 65 60
0.6319949 -0.27263737 -0.28416386 83 74 64
0.6219887 -0.29789695 -0.27117133 85 73 64
0.6154544 -0.32772583 -0.26279598 91 76 65
0.97576666 -0.89913744 -0.7427678 104 82 61
0.9475133 -0.9537839 -0.7059457 98 50 45
0.91545033 -1.0000831 -0.66402996 101 83 64
0.8877315 -1.0519453 -0.62789017 125 99 75
0.45026436 -0.20362808 -0.04387503 156 155 152
0.44578555 -0.21712193 -0.03807748 134 136 132
0.44398785 -0.23793161 -0.0358764 131 131 128
0.44262186 -0.2616625 -0.03426882 129 129 124
0.44110966 -0.2871053 -0.032482363 128 126 122
0.4385338 -0.31122884 -0.029281983 125 123 117
0.43345577 -0.32765132 -0.022717934 124 122 114
1.431368 0.070290595 -1.4725195 138 123 109
1.4412173 -0.0025040575 -1.4909431 136 119 106
1.440013 -0.079391345 -1.4936188 131 116 102
0.66956294 -0.022149235 -0.37630823 22 23 32
0.67559475 -0.049369458 -0.38659373 18 20 27
0.68015385 -0.078580916 -0.39486405 16 18 24
0.68585163 -0.110738486 -0.40495014 18 18 23
0.6928026 -0.14644758 -0.41705233 12 12 16
0.7011475 -0.18644497 -0.4314164 9 13 17
0.71810675 -0.23674455 -0.4588281 34 42 46
0.6860854 -0.25243533 -0.41342872 36 39 41
0.64606786 -0.25574926 -0.3557562 82 86 78
0.6141764 -0.26059636 -0.30992162 56 57 54
0.594144 -0.2741164 -0.2817328 85 78 69
0.58558524 -0.30042636 -0.27086887 91 80 70
0.64515793 -0.4319706 -0.36456454 102 82 66
0.8835043 -0.8947298 -0.7357839 84 61 50
0.45662624 -0.18456398 -0.07774598 124 125 124
0.44564077 -0.18571465 -0.06192779 111 109 107
0.438768 -0.19385718 -0.052457985 105 103 97
0.43389648 -0.20622334 -0.046124525 110 106 98
0.4321456 -0.22758242 -0.044819936 113 112 103
0.4329725 -0.25914723 -0.047828935 118 115 107
0.43175608 -0.28757542 -0.047703363 118 116 108
0.42819166 -0.3100145 -0.04383854 121 120 111
0.42450285 -0.3337588 -0.03986888 122 120 112
1.3596203 0.045209896 -1.5195483 92 57 50
1.3719923 -0.03012439 -1.5478858 83 52 47
0.64771926 -0.0068023745 -0.39149505 24 30 37
0.64687294 -0.03183312 -0.39301416 21 24 34
0.64997464 -0.059519134 -0.40112656 20 23 31
0.653711 -0.08975666 -0.4105421 15 18 26
0.65906715 -0.12345919 -0.42293477 12 15 19
0.6606598 -0.15813325 -0.42944372 13 14 18
0.6377015 -0.17782311 -0.39512813 21 27 32
0.5376925 -0.12953413 -0.2302888 50 51 52
0.5185227 -0.13666855 -0.20056981 71 72 71
0.4998015 -0.14093892 -0.17123733 5 5 6
0.48828125 -0.15070967 -0.15400559 2 5 9
0.48396593 -0.16910975 -0.14923938 3 3 6
0.47817114 -0.18577565 -0.14191777 5 7 11
0.4666297 -0.1921647 -0.1242649 68 68 69
0.45180565 -0.18954918 -0.10035152 81 80 80
0.43985394 -0.18920249 -0.081273526 86 83 81
0.43117985 -0.19375871 -0.067978136 93 91 86
0.42386523 -0.20010285 -0.057053223 121 120 119
0.41976994 -0.21513832 -0.05225203 119 115 108
0.4224225 -0.2548145 -0.06102232 115 113 105
0.4235216 -0.29488015 -0.06736277 119 115 107
0.41852158 -0.3140463 -0.06159357 121 119 111
0.41252297 -0.32917437 -0.053771075 124 120 112
0.40684676 -0.34610856 -0.04666909 122 118 111
1.2258681 0.08812525 -1.4507818 161 115 95
0.89476717 0.026563855 -0.8774513 27 34 47
0.5132952 0.019664861 -0.20527633 22 27 36
0.50364715 0.006502003 -0.19063361 16 21 34
0.49976936 -0.0074900743 -0.18632789 19 22 33
0.49640605 -0.02195435 -0.18301608 18 21 31
0.49245745 -0.036551975 -0.17869529 14 18 26
0.48910102 -0.051833432 -0.17554396 13 16 24
0.48595846 -0.06778223 -0.1728913 11 14 22
0.48259187 -0.084171906 -0.16992328 10 11 18
0.47898415 -0.100968316 -0.16660336 10 11 16
0.4757088 -0.11880427 -0.16405888 11 9 15
0.47245786 -0.13753237 -0.16171946 6 6 11
0.4689881 -0.15692264 -0.15911388 14 14 19
0.46480063 -0.17613462 -0.15520905 3 3 8
0.4574677 -0.19013104 -0.14480464 39 36 38
0.44467863 -0.19160596 -0.12249533 22 20 22
0.43083128 -0.1867315 -0.097165205 44 44 45
0.4212734 -0.18874405 -0.08065765 4 7 7
0.41316396 -0.19229093 -0.06698551 0 2 2
0.40766633 -0.20266354 -0.0591632 3 6 8
0.4041912 -0.22063428 -0.056290604 9 10 10
0.41150934 -0.2898241 -0.08176904 115 112 104
0.4074262 -0.31517848 -0.07916335 121 117 112
0.4008244 -0.32827926 -0.069887005 123 121 113
0.39446378 -0.34219846 -0.061185084 124 118 111
0.8379811 0.05397757 -0.8728601 43 43 52
0.82081157 0.012258743 -0.8499252 31 36 48
0.49076864 0.015469304 -0.1987825 22 27 38
0.48494828 0.0021148415 -0.190802 82 80 81
0.48059228 -0.011625387 -0.18580756 29 33 40
0.47694346 -0.025888406 -0.18234305 27 29 37
0.47374037 -0.0408066 -0.17992793 19 20 29
0.47011766 -0.055987816 -0.17675465 15 19 25
0.46721292 -0.072305165 -0.17529282 14 15 24
0.46459496 -0.089731604 -0.17468563 9 11 17
0.462281 -0.10855599 -0.17504252 89 86 83
0.4582335 -0.12628496 -0.17169772 79 76 75
0.45406422 -0.14460252 -0.16826653 18 16 22
0.4504113 -0.164727 -0.1663248 13 13 18
0.44529206 -0.18305875 -0.1610257 3 3 6
0.4363121 -0.19278695 -0.14587258 41 38 38
0.4224122 -0.18721677 -0.11702991 7 7 10
0.41197413 -0.18641739 -0.09625443 4 4 7
0.40361443 -0.18868181 -0.08037417 2 5 8
0.39718285 -0.19555832 -0.06949756 4 7 9
0.39229447 -0.20792024 -0.063094154 3 6 6
0.3890853 -0.22945176 -0.06239415 62 65 67
0.39387327 -0.30538297 -0.09165881 119 116 110
0.3880992 -0.32415846 -0.08518525 123 119 114
0.38153806 -0.33693105 -0.075593226 123 119 112
0.3750503 -0.34906882 -0.06597991 120 112 104
0.80468947 0.08125243 -0.9109222 148 112 107
0.7871605 0.039239556 -0.8870563 90 75 79
0.47820368 0.024287544 -0.20706391 32 37 46
0.472825 0.0109205395 -0.19991072 34 38 47
0.46808705 -0.0026059751 -0.19423594 47 47 56
0.4646849 -0.016824672 -0.19177173 32 28 32
0.46155086 -0.031682 -0.19013043 62 55 57
0.45866647 -0.047350705 -0.18933293 56 49 48
0.45512497 -0.06325114 -0.18716063 116 109 108
0.45128745 -0.079537906 -0.18446985 108 103 102
0.44724387 -0.09626221 -0.18147835 115 111 107
0.44296798 -0.11336955 -0.17810845 50 47 47
0.43881845 -0.13143526 -0.17536138 39 38 40
0.43526882 -0.15165156 -0.17471382 12 15 17
0.43100655 -0.17175758 -0.17244597 5 8 12
0.42407253 -0.1860881 -0.16218719 3 5 10
0.41522324 -0.19393164 -0.1453611 85 81 75
0.4029962 -0.1870496 -0.11577878 1 2 7
0.39418665 -0.18709606 -0.09625377 3 5 8
0.38708872 -0.19072221 -0.08180509 5 7 10
0.38150552 -0.19962761 -0.072603405 60 55 54
0.3766606 -0.2121566 -0.06633478 115 112 108
0.37925616 -0.28695542 -0.09882908 117 115 108
0.3743026 -0.3133537 -0.09727709 122 120 114
0.3681335 -0.32973748 -0.08944893 125 122 116
0.3620548 -0.34803098 -0.082504 115 107 99
0.74959433 0.06623438 -0.9156501 73 69 73
0.7351077 0.024442002 -0.89898837 34 43 55
0.46070457 0.019666607 -0.20868668 30 37 50
0.45559946 0.006332145 -0.20215163 40 44 52
0.45136848 -0.00737004 -0.19799784 39 41 49
0.44783467 -0.021731444 -0.19591768 88 83 84
0.44416994 -0.03654748 -0.19372357 72 69 69
0.44042102 -0.051879056 -0.1915624 92 85 84
0.43601543 -0.06715399 -0.18771698 80 73 72
0.4320488 -0.083491385 -0.18548526 68 64 60
0.42792037 -0.10037901 -0.18310732 49 47 45
0.4236128 -0.11781267 -0.18053722 65 62 61
0.42037287 -0.1385527 -0.18223627 9 9 14
0.41659507 -0.15992802 -0.1828803 15 15 20
0.41160133 -0.17967132 -0.1796782 12 58 128
0.40399492 -0.19136025 -0.16604638 44 41 43
0.39385706 -0.19053741 -0.14006728 19 17 21
0.38448516 -0.18707709 -0.11476536 2 3 6
0.37690914 -0.18704739 -0.09562983 52 50 49
0.37094206 -0.19291309 -0.08336263 40 39 38
0.3658732 -0.20367962 -0.07569614 4 7 9
0.3612932 -0.21940686 -0.07162587 48 47 45
0.36024186 -0.29747483 -0.10614847 121 119 112
0.35400844 -0.3097298 -0.09625152 120 106 100
0.34740463 -0.2977563 -0.07388219 129 97 89
0.34180793 -0.3077502 -0.06451559 122 83 71
0.71941864 0.09410251 -0.9640615 57 64 78
0.7058426 0.051841106 -0.9510191 49 57 71
0.62048995 0.014613104 -0.72592556 39 48 60
0.44346353 0.015095449 -0.21040604 40 45 58
0.43881905 0.0016789896 -0.20529181 104 101 103
0.43447396 -0.012055836 -0.20124829 101 98 100
0.4303464 -0.026243377 -0.19812149 78 75 77
0.42622143 -0.040878065 -0.19528216 141 134 133
0.4221194 -0.056073908 -0.1928613 72 65 64
0.4179179 -0.071791366 -0.19047733 83 77 75
0.41434056 -0.08933023 -0.19105092 87 84 84
0.41050074 -0.10771274 -0.1913888 10 12 19
0.40591016 -0.12576935 -0.18933773 7 7 12
0.40145355 -0.14547314 -0.18870823 5 5 10
0.39678854 -0.16624992 -0.18814406 3 4 9
0.39127922 -0.18551259 -0.18417446 1 3 7
0.38346428 -0.1938269 -0.16663739 46 43 45
0.3742509 -0.18884832 -0.1367045 53 51 51
0.36675486 -0.1871051 -0.11379632 15 14 15
0.36043346 -0.18817511 -0.096068695 7 7 12
0.35512418 -0.19527787 -0.08506509 0 3 4
0.3502658 -0.20718679 -0.07838423 11 13 15
0.3457318 -0.23490597 -0.08254962 57 59 64
0.34062365 -0.2687766 -0.08889685 110 71 55
0.33525333 -0.27609563 -0.07785115 85 43 32
0.3298643 -0.2905437 -0.071216084 78 37 30
0.8788868 0.10662788 -1.6780657 166 183 194
0.6579612 0.03675773 -0.98116034 56 66 84
0.4301424 0.023940718 -0.21381249 40 49 61
0.42678988 0.01046591 -0.21344347 49 54 66
0.42177367 -0.0028076677 -0.20722844 54 54 59
0.41743445 -0.016601503 -0.20375276 33 34 43
0.41398007 -0.03160156 -0.20428988 38 40 48
0.41035953 -0.047355235 -0.20487927 27 29 37
0.4058798 -0.06288627 -0.20235182 22 24 32
0.40111184 -0.07860798 -0.19899721 18 17 26
0.39672723 -0.09593995 -0.19827531 14 14 23
0.39227086 -0.114435636 -0.1982651 8 8 15
0.38741556 -0.13328339 -0.19718225 6 7 12
0.3823651 -0.15311146 -0.19623901 7 7 13
0.37698838 -0.17341 -0.19456832 4 4 9
0.37085444 -0.19071196 -0.1878487 6 8 12
0.36325 -0.19386223 -0.16447334 53 50 46
0.355917 -0.18927509 -0.13566382 6 6 11
0.34975383 -0.18706422 -0.11280207 2 4 8
0.3444773 -0.1910288 -0.09804473 50 48 48
0.33957356 -0.19998711 -0.08866596 8 8 11
0.33469605 -0.21392864 -0.08347371 12 14 20
0.32771766 -0.27825096 -0.11252795 127 127 124
0.32347694 -0.26513365 -0.08726384 69 41 43
0.31966785 -0.2573753 -0.067879274 152 117 102
0.31466594 -0.2705487 -0.061630525 131 94 73
0.80793107 0.14933047 -1.6909685 187 213 229
0.78778183 0.08155016 -1.682128 175 193 205
0.58522445 0.022504192 -0.91599 64 73 94
0.41392604 0.019374184 -0.21714884 45 52 65
0.40958425 0.006113667 -0.2137803 51 56 67
0.4052521 -0.007484532 -0.21081865 39 43 55
0.4003695 -0.020972032 -0.20548014 52 54 60
0.39675435 -0.03628436 -0.2073232 52 53 58
0.3929492 -0.052525487 -0.20939831 18 23 34
0.388506 -0.06886033 -0.2089595 14 19 30
0.38388184 -0.08597311 -0.20862564 9 13 22
0.37872827 -0.10273117 -0.20573537 16 16 25
0.37366956 -0.12119229 -0.20508741 11 11 18
0.36839965 -0.14067864 -0.20468925 10 9 16
0.36272132 -0.15984339 -0.20226672 5 7 13
0.35693657 -0.18111022 -0.2016956 5 5 10
0.3504246 -0.19346385 -0.18844315 47 46 47
0.3439427 -0.1927812 -0.16112742 10 12 15
0.33831927 -0.18869533 -0.13362738 3 5 9
0.33337396 -0.18943204 -0.114155635 73 73 71
0.32870758 -0.19464491 -0.100698404 99 98 96
0.32390603 -0.20581311 -0.09316792 53 52 51
0.31882232 -0.22087027 -0.08871317 72 71 67
0.31483063 -0.224112 -0.07587675 97 63 58
0.30991292 -0.23785546 -0.07067264 114 70 54
0.30493167 -0.2518217 -0.06545063 123 81 64
0.71797603 0.12413457 -1.6879655 122 100 101
0.69765896 0.05685245 -1.6836251 116 92 94
0.6219642 -0.004661497 -1.3892404 125 135 141
0.3981033 0.014665223 -0.22262342 45 52 67
0.39315543 0.001555961 -0.21674776 71 73 81
0.38868916 -0.012123626 -0.21415952 36 41 52
0.3844102 -0.026596 -0.21368994 32 36 44
0.38050935 -0.042760488 -0.2176313 24 29 40
0.37572452 -0.058450058 -0.21637985 18 24 35
0.37076798 -0.07476075 -0.21516903 13 19 29
0.36573476 -0.09230273 -0.21537906 13 17 26
0.36038113 -0.11018891 -0.21446626 14 13 23
0.35474685 -0.12827376 -0.21241888 12 11 20
0.34889892 -0.14688358 -0.2100573 9 9 16
0.34285265 -0.16717131 -0.20915528 3 6 10
0.3365118 -0.18897285 -0.20898187 10 12 18
0.33059165 -0.19427386 -0.18667832 51 50 52
0.32565442 -0.19201627 -0.15825526 58 61 61
0.3214364 -0.18948215 -0.13308208 6 8 12
0.31716877 -0.19322202 -0.116884634 5 7 12
0.31273323 -0.20097351 -0.1057335 61 56 53
0.30787015 -0.2131035 -0.09884859 11 13 17
0.30382377 -0.21962793 -0.08787164 114 85 73
0.30071315 -0.22099422 -0.074065596 168 130 113
0.2949549 -0.23981445 -0.07246953 98 73 68
0.28964207 -0.2553251 -0.068270236 55 39 44
0.65397394 0.16548815 -1.7065775 246 245 246
0.63167936 0.09986362 -1.6946574 245 244 245
0.6048154 0.032691754 -1.6556834 97 101 115
0.38612863 0.023324754 -0.22717954 48 57 71
0.38182074 0.010069642 -0.22606476 53 57 71
0.37700656 -0.0032326372 -0.22169532 43 48 61
0.3724618 -0.017288128 -0.22066697 36 41 53
0.367994 -0.032452174 -0.22244039 31 36 47
0.3631906 -0.048118163 -0.22302951 26 31 42
0.35805002 -0.06393303 -0.22169419 19 24 36
0.35275573 -0.08066243 -0.22123186 15 20 33
0.34724966 -0.09848202 -0.22162178 13 18 29
0.3414632 -0.11646825 -0.22049971 7 11 18
0.335456 -0.13457987 -0.21817571 6 8 14
0.32919508 -0.15409394 -0.21707124 7 9 16
0.32264188 -0.17467557 -0.21623902 3 5 12
0.31613117 -0.19292617 -0.21086836 9 11 17
0.3114643 -0.1958014 -0.18591537 18 17 17
0.3081024 -0.19257094 -0.1569774 6 9 13
0.30478224 -0.19254516 -0.13494231 6 8 12
0.30089772 -0.19805098 -0.12060764 7 11 14
0.29664165 -0.20663455 -0.11017689 9 13 19
0.29149714 -0.22036153 -0.10449863 19 21 25
0.28559482 -0.23778887 -0.10145372 149 140 136
0.28444952 -0.23202696 -0.0819576 67 39 34
0.27929696 -0.24614494 -0.077034466 122 81 68
0.5678834 0.14059791 -1.6990889 76 84 101
0.5440383 0.07543874 -1.6799458 84 89 101
0.51969886 0.0092683835 -1.6593428 115 73 88
0.37041953 0.018616822 -0.23398496 49 56 71
0.36565453 0.0053370344 -0.23096947 54 58 72
0.3608412 -0.00834912 -0.22877376 42 49 61
0.35597864 -0.022725532 -0.22827673 38 43 54
0.3509699 -0.03796736 -0.22912085 30 36 45
0.34570414 -0.053687196 -0.22905654 26 31 41
0.34020984 -0.07000905 -0.2287383 21 26 37
0.33448103 -0.087015934 -0.2283701 17 19 30
0.32848704 -0.10495034 -0.2284239 12 15 23
0.32229427 -0.122990385 -0.2269489 8 12 19
0.3158803 -0.14159831 -0.22518201 5 7 13
0.30917487 -0.16121899 -0.22385792 7 9 17
0.30204245 -0.18249509 -0.22371979 5 7 13
0.296568 -0.19422849 -0.2092315 55 54 57
0.2931936 -0.19620591 -0.18385966 9 11 17
0.29107696 -0.19379693 -0.15652724 40 41 42
0.28833392 -0.19574234 -0.13695994 41 41 44
0.28489637 -0.2015903 -0.123107396 25 28 26
0.28042382 -0.21222599 -0.11455471 124 126 124
0.27491942 -0.22714911 -0.10976574 28 30 34
0.2663114 -0.25413594 -0.11369472 145 148 146
0.26962176 -0.23480982 -0.08418841 124 89 78
0.26548386 -0.244788 -0.076708384 158 119 105
0.5074874 0.17946674 -1.705517 246 245 246
0.48403275 0.11632507 -1.6903745 94 103 117
0.45985365 0.051923677 -1.6709386 105 114 119
0.41622084 -0.0032892926 -1.2978624 85 85 88
0.35441127 0.013778675 -0.24143931 53 60 74
0.34937322 0.00047411447 -0.2367557 50 55 68
0.34431824 -0.013527107 -0.23566878 44 49 60
0.33908325 -0.028381068 -0.23650602 38 44 54
0.33362117 -0.043720704 -0.23649943 32 36 45
0.3279462 -0.059567437 -0.23598975 27 32 41
0.3220447 -0.07604189 -0.23543353 20 25 34
0.31584993 -0.0934656 -0.23557273 42 42 46
