ply
format ascii 1.0
element vertex 1061
property float x
property float y
property float z
property uchar red
property uchar green
property uchar blue
element face 0
property list uchar int vertex_indices
end_header
0.113316044 -0.24082209 -0.06246478 165 140 101
0.11570391 -0.25916252 -0.058824815 165 143 107
0.11875407 -0.27960536 -0.05537698 186 167 130
0.121460155 -0.30031368 -0.051282648 185 164 128
1.0364475 0.057093777 -1.8005185 143 157 157
1.3702062 -0.026901463 -2.346029 248 247 247
1.2485664 -0.12226267 -2.099017 142 151 149
1.0504841 -0.18781224 -1.7311097 66 77 91
1.0414879 -0.2706531 -1.6838444 59 72 85
0.89551824 -0.30864516 -1.4166737 72 86 101
0.7793049 -0.336457 -1.2048982 248 247 247
0.77898604 -0.40363333 -1.1786444 248 247 248
0.7731144 -0.4688717 -1.1435215 248 247 248
0.776007 -0.5403318 -1.1211869 248 247 248
0.09552447 -0.09533766 -0.11370973 246 165 112
0.0856104 -0.097480245 -0.09573136 228 149 75
0.081850156 -0.1037987 -0.0868059 210 125 53
0.080109976 -0.1117064 -0.080768585 204 124 48
0.081315376 -0.12282657 -0.078600176 208 128 59
0.08328098 -0.13533399 -0.077216715 235 143 78
0.08532528 -0.14856414 -0.07569292 202 114 44
0.107953005 -0.19207801 -0.09820682 142 111 77
0.10410951 -0.19971955 -0.08863107 150 117 81
0.10330806 -0.21186425 -0.08259733 163 124 88
0.102959886 -0.22493711 -0.07699299 140 109 75
0.10500608 -0.24274155 -0.073722325 163 136 98
0.10772056 -0.26267728 -0.07079287 179 155 120
0.1097558 -0.28216392 -0.06685963 185 166 131
0.11245973 -0.3040001 -0.06318476 190 170 136
0.11318615 -0.32222605 -0.057468668 154 133 101
0.6102408 0.0551398 -1.1814107 61 75 91
0.61488664 0.0040879725 -1.1720159 54 68 86
0.62831664 -0.04934728 -1.1786513 111 98 102
0.62757915 -0.10402855 -1.1576056 62 64 76
0.63953555 -0.16271469 -1.1595236 97 78 84
0.8643113 -0.2934955 -1.5446606 47 60 74
0.67944753 -0.29666463 -1.1881635 250 254 254
0.7073187 -0.37504116 -1.2136062 248 247 248
0.7119346 -0.44612405 -1.1969638 248 247 248
0.7072415 -0.5131304 -1.16389 248 247 248
0.7070718 -0.5843716 -1.1379914 248 247 248
0.086232014 -0.10265379 -0.11747934 257 175 130
0.07612484 -0.103515446 -0.09774125 247 166 106
0.072115995 -0.10922178 -0.08798681 235 168 108
0.071069814 -0.11788342 -0.08286663 201 112 56
0.07674312 -0.13540879 -0.08748149 179 97 36
0.077537455 -0.14747001 -0.08467899 236 124 83
0.09862859 -0.19136529 -0.10946564 168 138 105
0.09192183 -0.19425057 -0.0955377 121 76 55
0.092355765 -0.20861067 -0.09121721 173 129 95
0.09302096 -0.2238613 -0.08702163 169 125 91
0.096216634 -0.24479152 -0.085651614 179 146 110
0.09958272 -0.2672971 -0.084043704 176 147 112
0.10296881 -0.2911475 -0.08199149 173 152 116
0.10605788 -0.31562933 -0.079141684 150 120 89
0.1118343 -0.34837168 -0.07849257 142 113 78
0.5166041 0.022807097 -1.1120603 50 60 77
0.518682 -0.025663 -1.1005049 55 63 75
0.5215233 -0.07570979 -1.0900706 54 60 71
0.5257152 -0.12772948 -1.08189 44 52 64
0.53095937 -0.18207678 -1.0752039 39 48 60
0.5568516 -0.24727537 -1.109356 211 219 223
0.58774096 -0.32158417 -1.1512475 92 121 132
0.61331314 -0.4003946 -1.1802102 122 160 176
0.63003486 -0.47973394 -1.1899558 104 134 151
0.6299302 -0.55031496 -1.1663938 219 241 248
0.6216817 -0.6149288 -1.1272823 160 183 186
0.07922263 -0.11300409 -0.12609296 246 131 109
0.07000015 -0.11379674 -0.105987936 255 153 130
0.06445225 -0.11744356 -0.092845395 229 126 64
0.06915632 -0.13457462 -0.09730236 195 117 44
0.068919815 -0.14552858 -0.09317169 193 117 79
0.13653883 -0.2705557 -0.19732061 173 142 114
0.0800551 -0.18920071 -0.10269043 133 69 55
0.080351554 -0.20354745 -0.09858467 147 77 61
0.08348437 -0.22429083 -0.09846656 160 124 82
0.08840303 -0.25033838 -0.10043712 164 129 94
0.09400069 -0.2799084 -0.10270391 172 143 105
0.1257184 -0.37795419 -0.1385293 138 107 72
0.1873112 -0.56709737 -0.20851299 131 98 62
0.1810691 -0.58309686 -0.18979257 131 96 59
0.16549654 -0.5697948 -0.16068512 156 115 75
0.4405478 0.039746646 -1.0811685 39 51 66
0.44187278 -0.0058610835 -1.0708836 37 47 63
0.44387627 -0.05294753 -1.0618104 47 53 62
0.4451728 -0.10149835 -1.0505847 38 44 55
0.44670266 -0.1516395 -1.0394554 33 41 51
0.45954505 -0.20813994 -1.053944 215 220 219
0.48371232 -0.27488455 -1.0929302 58 84 92
0.5073985 -0.34833762 -1.1287601 57 86 98
0.5060978 -0.40988016 -1.1073732 114 141 140
0.5211459 -0.48731285 -1.1210252 115 135 141
0.5213464 -0.5552817 -1.1013848 130 147 152
0.5174287 -0.62052184 -1.072541 108 116 117
0.5047727 -0.67560315 -1.0254624 114 114 111
0.4842033 -0.7181581 -0.96285534 111 102 88
0.45947322 -0.7506089 -0.8931258 112 100 83
0.45451578 -0.81151706 -0.8630371 135 115 93
0.4490352 -0.87209266 -0.8317751 153 131 105
0.07199051 -0.19163194 -0.11667295 139 90 79
0.07324337 -0.20893224 -0.11459551 171 126 99
0.07732635 -0.23366494 -0.11719717 173 125 85
0.16938616 -0.4789658 -0.26835608 127 86 47
0.16953549 -0.51238877 -0.25882143 123 86 48
0.1687934 -0.5444387 -0.24752627 135 96 57
0.16702989 -0.5742837 -0.234401 161 117 72
0.16195539 -0.59401095 -0.21622282 165 121 75
0.16184738 -0.62995994 -0.20531452 175 131 85
0.37417266 0.012011082 -1.0480533 30 40 56
0.37466747 -0.032511692 -1.0381572 27 36 50
0.37466758 -0.07832518 -1.0265597 22 31 45
0.3743357 -0.12536061 -1.01373 23 30 43
0.37961495 -0.17605865 -1.0155672 191 200 203
0.39815062 -0.236796 -1.0517039 55 79 85
0.41156152 -0.30041185 -1.0728697 48 78 85
0.41164947 -0.35847145 -1.058416 98 123 123
0.38217092 -0.39023846 -0.96844983 84 95 95
0.19554777 -0.24357712 -0.48693153 78 86 85
0.34301144 -0.4584335 -0.8423574 87 92 89
0.4251039 -0.6281241 -1.0275434 80 76 69
0.40474817 -0.66659546 -0.9612334 69 62 63
0.39284974 -0.7152985 -0.91583693 82 72 59
0.38598052 -0.7718303 -0.88243526 102 88 71
0.38948062 -0.84970653 -0.8724477 125 103 77
0.17231153 -0.43803415 -0.37312773 137 103 71
0.14007497 -0.39589962 -0.2942053 115 81 51
0.13999805 -0.42673174 -0.28618622 120 82 50
0.1405684 -0.46051916 -0.27921784 139 96 57
0.14022377 -0.49300566 -0.27003595 164 118 71
0.13742113 -0.51868075 -0.25574732 162 119 72
0.13382062 -0.5417081 -0.23991165 167 123 79
0.12709825 -0.55293274 -0.21838787 173 131 85
0.052931927 -0.29630154 -0.07723891 159 132 96
0.054210942 -0.3202885 -0.07472099 115 104 79
0.31342062 0.028365867 -1.0300474 23 34 51
0.3120732 -0.013976613 -1.0173124 27 35 47
0.31104535 -0.057382125 -1.0053974 26 32 45
0.30960447 -0.10182089 -0.99194574 21 29 39
0.3093928 -0.14787653 -0.9821376 29 45 52
0.3253366 -0.20465294 -1.0223002 40 59 68
0.33438772 -0.2628831 -1.0399486 31 53 61
0.33942866 -0.32222462 -1.0444454 38 62 71
0.3029627 -0.34217176 -0.92290425 96 118 116
0.16198097 -0.22650295 -0.4912118 71 85 83
0.14453621 -0.23395804 -0.433482 69 71 66
0.14534214 -0.26470077 -0.42998925 73 69 62
0.1474406 -0.29912618 -0.4299347 73 64 54
0.15919194 -0.3542195 -0.4569118 83 75 66
0.113313735 -0.29241726 -0.32121807 99 70 47
0.112119384 -0.3175494 -0.31238696 94 59 32
0.111517414 -0.34484294 -0.30503777 101 65 36
0.11146673 -0.37462795 -0.29897258 128 87 52
0.11258907 -0.4092387 -0.29573372 160 116 72
0.113928445 -0.4465043 -0.29266867 165 120 74
0.1141159 -0.48189363 -0.2862609 169 123 76
0.109410465 -0.50040525 -0.26741973 165 120 72
0.050616406 -0.2970558 -0.11812425 160 127 87
0.03839626 -0.26460284 -0.085149385 160 131 94
0.03692125 -0.27601323 -0.07813214 172 142 101
0.03421843 -0.28122854 -0.0683832 102 94 70
0.2554381 0.0029506227 -1.0000876 20 29 43
0.25349388 -0.03835982 -0.98749685 18 27 41
0.2515024 -0.08063109 -0.9746055 20 27 40
0.24978985 -0.124037765 -0.962636 27 35 45
0.26055783 -0.17610711 -0.9971963 32 44 51
0.2714283 -0.23388161 -1.0314331 28 44 52
0.27314702 -0.28889045 -1.0311015 41 59 66
0.2692065 -0.34029442 -1.0096304 76 101 101
0.25065315 -0.37283176 -0.9347727 63 81 85
0.1152446 -0.2183672 -0.43751732 95 99 94
0.1097293 -0.2379814 -0.41401953 75 70 61
0.09307634 -0.23417152 -0.35096362 86 62 43
0.09047939 -0.25528535 -0.33841184 92 66 48
0.08923245 -0.2797596 -0.33058968 103 71 45
0.08892615 -0.30752787 -0.32594362 132 95 60
0.08896496 -0.33761892 -0.32232335 143 99 59
0.088866554 -0.36883464 -0.31803873 139 94 52
0.08922585 -0.4033265 -0.31509 161 115 71
0.08990633 -0.44113094 -0.31295174 168 123 75
0.08849527 -0.4724345 -0.3036482 168 125 78
0.03375038 -0.25779593 -0.12166974 174 148 112
0.028020658 -0.249597 -0.10083697 188 159 122
0.023790954 -0.2461637 -0.08513011 160 132 92
0.021678302 -0.25271258 -0.07624997 160 131 94
0.020170083 -0.26237845 -0.06928546 184 159 122
0.020362569 -0.28341895 -0.06738489 99 89 67
0.20341423 0.018508783 -0.98436147 42 48 61
0.2006839 -0.02092413 -0.97076064 33 41 49
0.1992583 -0.061463404 -0.9631807 41 49 59
0.19651188 -0.10276789 -0.94946045 30 37 49
0.19806978 -0.14774288 -0.95560324 54 60 65
0.21303686 -0.20698634 -1.0235577 46 56 64
0.21855927 -0.2650471 -1.0477629 42 56 64
0.22110978 -0.32446402 -1.0581604 62 74 79
0.22077902 -0.38358983 -1.0552098 86 92 92
0.09634676 -0.21981882 -0.48237282 110 117 114
0.08360657 -0.2251743 -0.42319173 65 63 56
0.07254673 -0.22896369 -0.37183663 96 76 54
0.06902629 -0.24802805 -0.3550618 127 92 57
0.06767678 -0.2730768 -0.34820604 131 92 56
0.06701009 -0.30130395 -0.34443906 147 105 61
0.066590756 -0.3319233 -0.34176132 146 102 58
0.066397645 -0.36528587 -0.34006634 161 116 70
0.0661456 -0.40056646 -0.3380522 166 120 73
0.06479929 -0.43274388 -0.3310404 141 106 72
0.041469954 -0.3459818 -0.22498533 151 119 87
0.022207119 -0.26249588 -0.13770068 178 153 117
0.015877618 -0.24482082 -0.10878618 191 166 129
0.011181392 -0.2331386 -0.0872985 139 114 87
0.0076514627 -0.22628774 -0.07110097 123 97 75
0.0064917724 -0.23650748 -0.0654806 152 165 144
0.00462866 -0.24023207 -0.05675548 199 172 136
0.15005602 -0.00492953 -0.94316614 128 134 146
0.15063691 -0.043654885 -0.95144963 92 97 105
0.12913148 -0.07491868 -0.82956755 99 64 61
0.12698759 -0.11134789 -0.82161903 119 71 68
0.12842876 -0.15243877 -0.8352343 164 138 127
0.13240622 -0.20006071 -0.864513 116 105 98
0.14841945 -0.27174184 -0.9672461 127 127 121
0.15158474 -0.33268672 -0.9934533 114 117 113
0.13287467 -0.35065597 -0.8862494 88 86 79
0.06087753 -0.21965922 -0.4484794 93 101 95
0.052557398 -0.22716516 -0.40074617 88 72 52
0.04872697 -0.24549115 -0.38064635 122 92 62
0.0467252 -0.2699512 -0.37201965 120 96 70
0.045205545 -0.29724148 -0.3665707 149 110 66
0.043844953 -0.3266453 -0.36231896 154 115 74
0.042959977 -0.36040047 -0.36139897 158 115 69
0.04160105 -0.39376968 -0.3576571 154 126 89
0.03602956 -0.40004376 -0.3258504 160 132 98
0.026549699 -0.37175268 -0.26681632 137 105 75
0.004345482 -0.22115058 -0.11790551 144 116 86
-0.0013299265 -0.19096941 -0.080892384 152 124 90
-0.0028403802 -0.19613004 -0.07270588 135 164 142
0.0043308083 -0.30545065 -0.12845314 117 81 60
-6.288087e-05 -0.28213093 -0.099804714 116 82 62
-0.0021459563 -0.28486213 -0.08796137 114 84 65
-0.0058687697 -0.25679556 -0.06263936 210 176 142
0.091000296 0.007653267 -0.8136398 22 34 53
0.089752324 -0.024672836 -0.81587213 165 138 140
0.08753025 -0.05823365 -0.8109267 164 167 166
0.08481229 -0.09262588 -0.8024026 177 176 175
0.08303084 -0.12914218 -0.80201036 184 189 186
0.08108896 -0.16730602 -0.80097246 211 212 208
0.07892009 -0.20703055 -0.7987354 199 197 194
0.07523677 -0.24507402 -0.78400034 201 204 200
0.06973242 -0.27844715 -0.7532531 195 193 186
0.043101326 -0.23486276 -0.52827257 94 99 96
0.031729143 -0.22737418 -0.43633443 66 67 64
0.027609698 -0.24418509 -0.41028807 71 67 60
0.025116516 -0.26830226 -0.39970687 74 69 61
0.022858744 -0.29450074 -0.39174488 93 77 56
0.020487173 -0.32093534 -0.3829786 141 104 67
0.018399285 -0.3509808 -0.37777853 123 98 73
0.01563826 -0.37625992 -0.36552936 120 93 67
0.012407225 -0.39646453 -0.3477094 147 123 95
-0.008312966 -0.17322032 -0.10228647 137 114 89
-0.010105602 -0.17253453 -0.08797781 161 186 163
0.022605507 -0.8298826 -0.588768 134 106 75
0.015029702 -0.8175111 -0.5247772 158 127 91
-0.0019282445 -0.5196399 -0.2811094 113 82 59
-0.008709982 -0.4097454 -0.18709348 109 81 64
0.00015656116 -0.9244933 -0.4479429 87 93 78
-0.0051270053 -0.93467474 -0.41030586 112 121 106
0.057903863 -0.011485762 -0.8636396 34 42 46
0.12828925 -0.08301576 -1.746476 195 181 165
0.12424617 -0.15490603 -1.7600789 212 193 178
0.12045163 -0.23214146 -1.7811085 186 170 150
0.113848984 -0.30933267 -1.7692944 187 176 160
0.10805006 -0.39236632 -1.7718139 185 181 170
0.100776814 -0.4753288 -1.7570493 178 174 166
0.051881608 -0.35938394 -1.0876939 126 132 131
0.039072677 -0.36807725 -0.9454051 101 102 101
0.0091492925 -0.22873679 -0.47789627 83 88 88
0.004883505 -0.2412031 -0.4386094 99 95 81
0.0017423232 -0.2609701 -0.41863945 100 91 77
-0.0011619482 -0.28248233 -0.40291402 102 91 76
-0.003885668 -0.3065995 -0.3915024 113 97 77
-0.006753645 -0.32814997 -0.37623352 120 100 78
-0.010445105 -0.32244045 -0.32827476 119 98 76
-0.016346984 -0.18924142 -0.14660327 168 198 180
-0.011931083 -0.6425076 -0.5817737 100 59 46
-0.015734319 -0.81836057 -0.68615794 142 116 88
-0.02125005 -0.85424334 -0.6520837 149 124 101
-0.026670432 -0.89184517 -0.6205795 136 107 81
-0.0317288 -0.9068042 -0.5741424 170 140 109
-0.036364514 -0.9143096 -0.52633494 183 153 122
-0.04091624 -0.93242705 -0.48849002 178 152 120
-0.045224644 -0.9486081 -0.45184845 80 90 83
-0.049629137 -0.97400934 -0.42188737 70 80 75
0.06159664 0.010865892 -1.728178 201 187 168
0.05608833 -0.054350004 -1.745873 201 184 169
0.050025903 -0.12355822 -1.759827 198 184 166
0.042988647 -0.1953088 -1.7575662 194 178 160
0.03576419 -0.27079308 -1.7591708 180 162 143
0.027982155 -0.34862497 -1.753421 188 184 170
0.019477708 -0.42559204 -1.7297463 187 186 174
0.0106404 -0.50199765 -1.6974627 177 173 157
-0.00041010889 -0.52480364 -1.5007381 123 122 108
-0.0130869765 -0.37017983 -0.886426 120 113 98
-0.019108282 -0.23793927 -0.46824512 65 70 67
-0.021967027 -0.2514193 -0.43364707 73 71 63
-0.024704032 -0.26976588 -0.4122185 75 70 61
-0.027388748 -0.28897968 -0.3938171 90 80 70
-0.03002828 -0.30820447 -0.37644416 143 188 178
-0.0481597 -0.72949874 -0.8788704 107 72 47
-0.05379828 -0.7690079 -0.8384065 109 77 57
-0.05149384 -0.6475328 -0.6285219 92 45 36
-0.064598165 -0.8438779 -0.7591762 118 91 63
-0.06951726 -0.8750373 -0.7167643 127 99 73
-0.07333842 -0.88975006 -0.6634135 153 118 91
-0.077085756 -0.9063568 -0.61577654 156 121 92
-0.080149814 -0.91497695 -0.5661653 172 144 112
-0.08345501 -0.92968637 -0.52428275 188 161 127
-0.08694949 -0.9488421 -0.48774746 188 165 132
-0.09069479 -0.9726877 -0.4557171 80 79 66
-0.017416103 -0.014749587 -0.61240995 32 41 51
-0.020349273 -0.038764928 -0.6038278 29 37 45
-0.023368072 -0.06383155 -0.60250145 24 32 40
-0.026451891 -0.08914697 -0.5949079 23 29 36
-0.029718367 -0.1163427 -0.5950257 28 29 32
-0.033323027 -0.14678027 -0.6042861 52 52 51
-0.03767731 -0.18434045 -0.63246393 124 131 121
-0.042005442 -0.22088169 -0.64346975 116 119 107
-0.045670267 -0.25064763 -0.6276105 115 114 102
-0.043535836 -0.22593129 -0.47870296 63 71 67
-0.044574823 -0.23220883 -0.42789647 71 71 65
-0.04628145 -0.24501033 -0.3978008 82 104 96
-0.07856647 -0.5344063 -0.8403701 88 80 74
-0.09764066 -0.70077264 -1.0030501 107 96 85
-0.10993343 -0.8049929 -1.0436506 112 92 74
-0.11600899 -0.85359913 -1.0015062 124 104 90
-0.11994777 -0.8835051 -0.93978083 87 56 44
-0.11896863 -0.8706482 -0.8389344 119 96 72
-0.120315045 -0.8786208 -0.76961565 126 101 76
-0.12205606 -0.8903416 -0.71022636 138 109 84
-0.124956295 -0.91233224 -0.66413903 140 111 88
-0.12779875 -0.93397474 -0.6208937 119 95 74
-0.12978141 -0.9483611 -0.57552063 161 134 110
-0.13194874 -0.9644816 -0.5343699 155 124 90
-0.1342902 -0.98221517 -0.49672395 180 149 110
-0.13766052 -1.0088274 -0.46581897 198 166 124
-0.040499344 -0.0052713044 -0.57810974 42 48 57
-0.043590594 -0.027585013 -0.5751284 36 41 50
-0.04685272 -0.050752874 -0.57364815 27 35 43
-0.050249428 -0.074845426 -0.57224345 24 32 40
-0.053880423 -0.10018105 -0.57258105 24 28 34
-0.057644602 -0.12659512 -0.5722755 29 28 31
-0.061583772 -0.15423621 -0.5719599 111 118 117
-0.06574752 -0.18333569 -0.5721431 120 125 116
-0.06888891 -0.20879975 -0.5568706 118 123 112
-0.06973735 -0.22421423 -0.5152621 196 198 184
-0.06765874 -0.22520101 -0.44705707 68 75 74
-0.101049125 -0.3939589 -0.7321527 86 82 77
-0.1189391 -0.49636725 -0.8322541 90 84 79
-0.13282007 -0.58244926 -0.88084567 94 86 79
-0.16577736 -0.7711014 -1.0652838 106 94 87
-0.17339392 -0.8305174 -1.0384587 135 119 110
-0.1755708 -0.8602562 -0.9747793 110 90 84
-0.17423618 -0.8693476 -0.8938517 107 88 83
-0.17117429 -0.86703634 -0.8099123 144 121 104
-0.1717089 -0.88383704 -0.7525726 177 155 129
-0.17479728 -0.9147236 -0.711866 176 152 121
-0.17681547 -0.9388294 -0.668042 129 104 83
-0.17663337 -0.9491571 -0.61710155 147 118 93
-0.17758417 -0.96560955 -0.5740816 150 120 93
-0.17829108 -0.9800046 -0.53260154 175 142 103
-0.17964393 -0.9978792 -0.49569204 188 155 115
1.6058853 0.19618297 -1.6520619 248 247 248
1.5683117 0.111367896 -1.5782511 248 247 248
1.5525355 0.029675419 -1.5274415 248 247 248
1.5729389 -0.05268038 -1.5122952 248 247 247
1.5607175 -0.13559936 -1.4644903 248 247 247
1.5464448 -0.21813995 -1.4148098 205 208 208
1.5033138 -0.2948313 -1.338971 248 247 247
1.494419 -0.3764661 -1.2950236 59 96 169
1.4536028 -0.44869795 -1.2234026 117 136 178
1.0232251 -0.37786877 -0.82623553 247 249 248
0.8528907 -0.3670962 -0.6616221 248 247 247
0.7874006 -0.3871111 -0.5879423 213 221 223
0.7170986 -0.397595 -0.5135803 206 209 207
0.6594286 -0.40787038 -0.45185938 195 192 180
0.6136066 -0.4195549 -0.40130475 193 182 165
0.56003684 -0.42066985 -0.34759763 188 170 151
0.51390904 -0.42146698 -0.30142158 182 157 130
0.4825902 -0.4294333 -0.26687667 181 153 124
0.45170796 -0.43428093 -0.23410676 182 164 136
0.4288042 -0.44335172 -0.20744812 176 154 123
0.40004987 -0.44377774 -0.17869423 142 102 86
0.36825147 -0.43741325 -0.14983612 149 112 90
0.34632275 -0.4387452 -0.1274746 185 163 129
0.33184898 -0.44674405 -0.1096531 184 162 127
0.32176027 -0.45889267 -0.09440399 170 148 114
0.3099669 -0.46763134 -0.07892761 175 152 119
2.4170072 0.23403665 -2.6769364 159 137 142
2.4315276 0.10360817 -2.6379867 160 130 133
2.41237 -0.029975772 -2.5614207 161 126 127
1.7320796 -0.119337596 -1.7908483 180 160 176
1.5259554 -0.19262503 -1.5380247 243 246 247
1.4870433 -0.27399912 -1.4620241 221 231 249
1.4059464 -0.34220195 -1.3460739 189 169 155
1.390431 -0.4216757 -1.2960842 201 193 189
1.3527703 -0.4927247 -1.2257545 186 195 207
0.8409352 -0.36288863 -0.7284887 248 247 247
0.7947422 -0.39410123 -0.6656396 197 205 204
0.73467386 -0.41287953 -0.5930417 204 223 237
0.6739042 -0.4244221 -0.522717 214 227 238
0.6178797 -0.43207148 -0.45913598 180 178 174
0.556587 -0.4292298 -0.394269 209 200 190
0.4960854 -0.41953495 -0.33312348 195 178 161
0.4585979 -0.42228556 -0.29157087 188 163 138
0.4265838 -0.42559266 -0.25568414 181 161 131
0.3957555 -0.4261671 -0.22221929 160 137 112
0.3732474 -0.43186882 -0.195575 131 100 84
0.33431768 -0.41588655 -0.16030987 176 152 119
0.32354665 -0.4291981 -0.14312936 192 172 134
0.3089493 -0.4363737 -0.12439364 172 147 111
0.3017367 -0.4519591 -0.11009632 175 152 117
0.29621035 -0.46933308 -0.0968675 174 152 119
0.28503713 -0.47761703 -0.08135814 119 102 77
3.0498714 0.38251755 -3.7064521 248 247 247
2.6537685 0.18152872 -3.1606183 254 252 249
2.5820549 0.026901638 -3.0138226 229 181 163
1.6963792 -0.08337419 -1.9309503 250 209 250
1.636337 -0.17900982 -1.82177 209 165 204
1.5996741 -0.27296156 -1.7406765 213 224 231
1.375143 -0.32122675 -1.4579134 174 175 183
1.3288542 -0.39490974 -1.3737608 47 58 72
1.3046381 -0.47198364 -1.3141046 124 138 149
0.7981338 -0.34586442 -0.77158535 223 228 228
0.7797177 -0.39078423 -0.7317736 216 229 235
0.75324804 -0.42974216 -0.68494105 178 187 188
0.5328034 -0.34626836 -0.4604189 178 156 146
0.1268767 -0.10606021 -0.08207997 132 87 49
0.12324933 -0.11392616 -0.07463671 120 68 28
0.11961939 -0.12145979 -0.06732528 123 71 31
0.4293116 -0.41069368 -0.3129731 204 190 180
0.40398154 -0.41954198 -0.27969283 172 154 127
0.37481308 -0.42116085 -0.24484663 139 113 94
0.34642527 -0.41978094 -0.21213225 135 110 89
0.30231583 -0.39561328 -0.1702358 175 152 116
0.2897199 -0.40541387 -0.1514953 172 146 112
0.28095803 -0.41889358 -0.13575602 174 147 111
0.27585876 -0.43670848 -0.122550815 170 143 105
0.2750233 -0.4606746 -0.11184762 167 142 107
0.2705424 -0.47909367 -0.09912212 161 136 101
3.2392612 0.31513667 -4.244825 248 247 247
3.2943861 0.11893947 -4.238573 248 247 247
3.2424216 -0.08471385 -4.092452 248 247 247
1.6685027 -0.15126355 -2.0535977 211 196 204
1.609662 -0.2504951 -1.9395311 248 247 247
1.4091086 -0.31320605 -1.6585199 248 247 247
1.2511119 -0.36329767 -1.4368694 56 69 81
1.2374701 -0.44438308 -1.3877043 46 59 72
0.780264 -0.3393015 -0.8441081 188 206 210
0.76504636 -0.38799652 -0.80559814 170 193 205
0.7468526 -0.4338837 -0.76438046 184 207 220
0.12300556 -0.09539217 -0.09898029 144 83 60
0.11600504 -0.10132182 -0.08770804 128 74 33
0.112220444 -0.10891452 -0.079897925 126 67 19
0.10986202 -0.11734978 -0.07358212 124 69 17
0.108394705 -0.12644967 -0.068145886 123 66 16
0.1109469 -0.13959497 -0.06626756 123 72 20
0.34935793 -0.41169307 -0.26472145 163 136 114
0.2976061 -0.38159233 -0.21031304 189 164 120
0.2751316 -0.3803393 -0.18206154 176 150 116
0.26268998 -0.3892919 -0.1626483 151 131 103
0.26056445 -0.41139156 -0.151285 175 148 110
0.25565493 -0.42937937 -0.1379699 153 130 99
0.26060328 -0.46292466 -0.1311758 173 150 113
0.26064768 -0.48954222 -0.120820224 171 146 109
0.2520515 -0.5011393 -0.10529035 155 131 100
2.986024 0.38794032 -4.309134 248 247 247
3.1263828 0.20313562 -4.436476 248 247 247
3.1950154 -0.003547505 -4.4551716 248 247 247
1.8372514 -0.12727267 -2.5073023 143 134 134
1.6314799 -0.22606137 -2.1821172 206 207 220
1.446275 -0.30289787 -1.8939582 171 183 188
1.1737323 -0.33172163 -1.5014703 60 75 85
1.1568254 -0.4120111 -1.4477161 59 73 87
0.7565619 -0.3303711 -0.9177374 248 247 247
0.746746 -0.38384923 -0.8839575 248 247 247
0.72644293 -0.43097883 -0.83786875 184 218 228
0.11335007 -0.091588035 -0.10638017 213 154 115
0.10461865 -0.09615312 -0.092441924 155 88 44
0.10129333 -0.103898086 -0.08488361 157 90 32
0.099737026 -0.11288241 -0.0793385 152 84 24
0.09784382 -0.12148858 -0.07346324 144 77 13
0.09716213 -0.13127097 -0.068844065 160 95 20
0.100454815 -0.14571758 -0.068043716 137 82 20
0.27345788 -0.3710627 -0.22591685 164 136 93
0.25263688 -0.3706137 -0.19692563 160 135 94
0.2441676 -0.38443643 -0.17988658 133 109 78
0.24186859 -0.40657353 -0.1683743 148 126 96
0.2563791 -0.45598063 -0.1701881 161 136 97
0.25053677 -0.4739518 -0.15527405 157 134 97
0.2571608 -0.51401275 -0.14954408 161 140 104
0.27246594 -0.572769 -0.14896853 184 163 127
2.8131294 0.2754923 -4.416485 248 247 247
2.844449 0.077967554 -4.394502 248 247 247
2.5758076 -0.11488485 -3.9121366 248 247 247
1.805351 -0.21447937 -2.6899574 244 247 248
1.5027577 -0.2925857 -2.1960895 205 204 215
1.1608242 -0.3171977 -1.6606427 193 208 215
1.0824642 -0.38178506 -1.5169786 62 77 91
0.7341217 -0.32205796 -1.0016447 248 247 247
0.7254174 -0.37866575 -0.96811146 248 247 247
0.7261689 -0.4406454 -0.9472335 248 247 247
0.6909303 -0.48001534 -0.8789567 248 247 248
0.096873686 -0.09363305 -0.10127299 219 145 76
0.092020705 -0.10017171 -0.09147303 196 119 50
0.08999006 -0.10870088 -0.08531277 181 111 34
0.08863035 -0.11777485 -0.079992294 178 102 35
0.087481186 -0.1270635 -0.074919805 187 105 33
0.08688013 -0.13703506 -0.07044881 196 114 37
0.08556115 -0.14619467 -0.06516062 146 104 65
0.21770081 -0.34325 -0.19864288 141 110 75
0.22725081 -0.38244593 -0.19941798 140 112 83
0.23973931 -0.4289727 -0.20211302 149 118 85
0.3132533 -0.5838982 -0.26026976 158 131 91
0.29152724 -0.581185 -0.22776867 167 144 105
0.3937296 -0.8154505 -0.30190784 187 166 130
0.36922398 -0.813195 -0.26496255 188 168 134
0.33927968 -0.79451716 -0.22547843 186 167 132
0.6625441 0.0909587 -1.1478615 97 113 135
0.66298497 0.03954983 -1.1314744 84 97 118
0.66113484 -0.012971101 -1.1108153 72 85 103
0.7537682 -0.07519004 -1.2478193 191 178 177
0.736683 -0.13428022 -1.1990263 93 84 90
1.0580871 -0.27827254 -1.6983436 51 61 77
1.0226299 -0.35640392 -1.6119174 63 77 89
0.7114287 -0.31374806 -1.0961927 248 247 247
0.70148164 -0.3727045 -1.0596 248 247 247
0.6945984 -0.43317977 -1.0277183 248 247 247
0.69582194 -0.49948138 -1.0076994 248 247 248
0.09509311 -0.09588544 -0.119262196 243 156 117
0.08521193 -0.09860873 -0.101527676 243 152 85
0.08192038 -0.10610892 -0.09342221 221 126 54
0.08011103 -0.11480432 -0.08744234 218 146 66
0.07932554 -0.1245952 -0.082840815 188 103 41
0.07866039 -0.13463987 -0.07835961 240 145 101
0.08104672 -0.14905831 -0.07761672 206 101 52
0.22137137 -0.37136996 -0.24246508 147 113 79
0.22099307 -0.39856094 -0.23275642 147 111 76
0.48480436 -0.8835114 -0.5203361 165 123 88
0.45840794 -0.8953185 -0.47144955 148 115 77
0.43702614 -0.91217494 -0.4294192 176 148 113
0.42241967 -0.9394646 -0.39544845 180 158 123
0.40860316 -0.96633047 -0.36296424 182 161 125
0.38366148 -0.96489567 -0.3209694 146 124 95
0.57655936 0.05720401 -1.1036047 57 70 88
0.580936 0.0077548963 -1.0966996 76 79 88
0.5841275 -0.043491937 -1.0869974 217 212 212
0.5912986 -0.09709205 -1.0841099 94 81 87
0.5991524 -0.15336137 -1.0816954 61 61 71
0.6026155 -0.21088578 -1.0705785 82 91 101
0.6328196 -0.28178877 -1.106002 154 189 196
0.6390765 -0.34738016 -1.0976981 153 190 202
0.64353895 -0.41462207 -1.0854882 248 247 247
0.6431624 -0.48089883 -1.064409 248 247 247
0.6322561 -0.54016167 -1.0255402 248 247 248
0.083620794 -0.10208585 -0.120960064 247 139 101
0.076397754 -0.10626636 -0.105993964 256 232 213
0.07259193 -0.11306138 -0.09669717 247 161 91
0.07197628 -0.12329558 -0.09238623 198 114 46
0.07289026 -0.13578224 -0.09028045 185 105 25
0.07406771 -0.14918868 -0.088391095 209 103 68
0.3473272 -0.60225964 -0.4667619 166 134 102
0.46353406 -0.8514405 -0.6103048 124 61 48
0.45107353 -0.89156747 -0.57437223 178 130 97
0.43804723 -0.92907137 -0.53817415 171 130 96
0.41759944 -0.94897264 -0.49332768 176 139 102
0.4001216 -0.97176236 -0.45321918 176 146 113
0.3936263 -1.0180286 -0.42669916 143 118 85
0.20525347 -0.5950493 -0.19986928 141 108 74
0.1903589 -0.5900085 -0.17320581 127 94 58
0.50480664 0.07391067 -1.0913059 49 62 78
0.5071382 0.026750073 -1.0832305 45 57 74
0.5090027 -0.022009809 -1.0737222 50 58 70
0.51025504 -0.072280064 -1.0624975 45 52 64
0.51228666 -0.12426203 -1.0524541 40 47 60
0.5163051 -0.17864108 -1.0459656 34 43 54
0.5417524 -0.24440928 -1.0818127 99 127 134
0.54849786 -0.30700383 -1.0788432 98 120 125
0.5517443 -0.37041193 -1.0682228 94 128 142
0.56077147 -0.44055593 -1.0680112 69 100 113
0.55679566 -0.5033046 -1.0422442 146 175 184
0.5624039 -0.57638264 -1.033966 141 166 173
0.555437 -0.6389408 -1.0019033 187 199 200
0.07129596 -0.11918896 -0.11789051 243 103 81
0.0653295 -0.123300165 -0.10409185 245 141 103
0.06957561 -0.14131652 -0.10812844 228 127 66
0.42074278 -0.7203757 -0.6935374 157 137 113
0.4020745 -0.74945086 -0.6458862 154 116 96
0.41741598 -0.8395672 -0.6535606 141 72 59
0.41387993 -0.89761364 -0.6300255 146 89 67
0.39805108 -0.929724 -0.58756256 163 125 83
0.38228118 -0.95919687 -0.54595304 160 124 88
0.17822468 -0.51220864 -0.23630108 130 93 56
0.17201176 -0.5296833 -0.21828887 123 88 51
0.16782685 -0.5519765 -0.20325027 144 105 65
0.16670386 -0.58327484 -0.19222349 163 119 75
0.44103476 0.044394366 -1.0751147 39 49 64
0.44143522 -0.00228164 -1.0649498 34 44 60
0.44196913 -0.050365906 -1.0547695 42 47 58
0.44259766 -0.09995219 -1.0444582 33 38 49
0.44431293 -0.15145186 -1.0362985 27 34 47
0.463321 -0.21228056 -1.0674112 206 214 210
0.46695873 -0.2706741 -1.0622214 50 75 83
0.46876448 -0.3304201 -1.0523133 45 75 84
0.21950488 -0.1945114 -0.48658323 110 135 133
0.20234853 -0.2097149 -0.44179076 103 119 122
0.23406817 -0.27251068 -0.5029373 66 90 97
0.48976544 -0.6091481 -1.036269 102 105 104
0.5153477 -0.7145003 -1.0725443 91 87 83
0.48684743 -0.7504565 -0.99558413 102 94 80
0.44172892 -0.7537754 -0.8865262 117 105 87
0.40297002 -0.7570596 -0.7927372 131 111 89
0.3723054 -0.76609415 -0.71700054 152 130 102
0.37029576 -0.8273241 -0.69758326 126 92 75
0.2187961 -0.5523033 -0.3995981 167 129 99
0.15421624 -0.43798745 -0.27188033 140 96 68
0.1515885 -0.46396342 -0.25938305 123 80 43
0.14861993 -0.48923796 -0.24623513 139 99 59
0.14712673 -0.5190914 -0.2355361 164 118 74
0.14710149 -0.55442077 -0.22705431 165 120 74
0.147681 -0.5932551 -0.21918823 172 126 79
0.150054 -0.64043385 -0.21363685 183 144 106
0.38144028 0.06108217 -1.0726954 31 40 56
0.38085294 0.016098889 -1.0624702 26 38 55
0.37973142 -0.030121852 -1.0505426 24 32 45
0.37882426 -0.077592246 -1.0389637 22 29 41
0.37864363 -0.12660724 -1.0290822 22 27 38
0.3932186 -0.18359984 -1.0581528 190 201 203
0.39382362 -0.23818862 -1.0493593 48 72 79
0.39327917 -0.29398122 -1.0371819 42 68 76
0.34258834 -0.3095743 -0.895133 69 97 98
0.17431751 -0.19726883 -0.4550127 71 82 84
0.1552834 -0.20538244 -0.40124178 65 74 72
0.15220143 -0.22918992 -0.38822785 69 71 67
0.16843884 -0.28095025 -0.4228611 73 71 64
0.4451438 -0.75872 -1.090471 80 76 70
0.40169337 -0.7622994 -0.9705858 75 68 57
0.37136942 -0.779244 -0.8841517 97 80 59
0.12995325 -0.33425587 -0.30707407 120 90 61
0.12863351 -0.361176 -0.2982986 109 76 48
0.12830739 -0.39134663 -0.29162648 117 81 50
0.12853454 -0.4242289 -0.28595293 138 97 58
0.12847802 -0.4577744 -0.27937418 163 117 72
0.12888278 -0.49427733 -0.2734946 165 119 72
0.12874448 -0.53070927 -0.2661388 165 121 75
0.12835567 -0.5678683 -0.25795645 170 126 82
0.1579957 -0.7256693 -0.30905187 165 135 96
0.15417722 -0.75999767 -0.29200283 172 142 101
0.32345298 0.03330026 -1.0584575 21 33 50
0.32198486 -0.011213776 -1.047919 20 31 42
0.32016402 -0.05688801 -1.0361059 25 30 41
0.31815797 -0.10369355 -1.0235543 21 27 38
0.31854057 -0.15274754 -1.0183043 33 46 53
0.33084947 -0.21077885 -1.0498068 35 55 61
0.3286546 -0.26382443 -1.035832 27 49 57
0.32734194 -0.31912804 -1.0243659 29 53 62
0.156632 -0.195503 -0.49765736 99 121 117
0.1344825 -0.19942153 -0.42668605 76 89 87
0.1192871 -0.20654608 -0.3774122 67 67 62
0.12397083 -0.24117321 -0.3877455 71 66 57
0.12668738 -0.2752803 -0.39189005 79 66 51
0.10810213 -0.26897416 -0.33360413 96 73 52
0.10609086 -0.2930049 -0.32403848 88 56 30
0.10559394 -0.32118407 -0.3187429 104 67 36
0.10522114 -0.35087925 -0.31364223 128 85 47
0.10564771 -0.38425153 -0.31059954 143 97 53
0.10607268 -0.41946703 -0.3073087 161 115 72
0.106648326 -0.4571966 -0.30416575 167 122 74
0.10735333 -0.49764958 -0.30107522 167 121 75
0.10949215 -0.5464236 -0.30144846 176 140 96
0.14231248 -0.73323345 -0.38121793 149 120 83
0.1419539 -0.788218 -0.37282848 154 125 88
0.13645509 -0.8202162 -0.35111907 161 134 96
0.12993321 -0.8461135 -0.32695967 173 142 106
0.26948854 0.049408775 -1.0541925 20 30 47
0.2672791 0.0065227663 -1.0436054 20 29 43
0.26522776 -0.03749059 -1.0335523 20 27 40
0.26269868 -0.08259855 -1.021646 21 28 41
0.26012066 -0.12883551 -1.0094956 23 32 44
0.2742414 -0.1865916 -1.0594616 33 45 50
0.27299365 -0.23939863 -1.0519582 34 48 54
0.26879787 -0.29132256 -1.0334274 45 60 68
0.2611296 -0.34014153 -1.0020171 56 75 83
0.24234061 -0.3731423 -0.9296743 41 62 70
0.09577123 -0.19555408 -0.3885409 102 107 104
0.0948549 -0.22135058 -0.3837229 76 69 58
0.085220285 -0.2300495 -0.34706554 84 58 38
0.08384272 -0.2546445 -0.3405789 89 58 34
0.08329095 -0.28218502 -0.33703747 121 83 49
0.08321711 -0.31243753 -0.33514675 135 96 59
0.08298775 -0.3439353 -0.3326054 144 101 61
0.08260289 -0.37668782 -0.329413 150 105 63
0.082626 -0.41286466 -0.32757056 166 119 71
0.08305088 -0.45305735 -0.32702324 169 123 76
0.111196235 -0.6228464 -0.42369977 157 128 95
0.120241664 -0.72332305 -0.45232168 186 159 121
0.11560663 -0.7615391 -0.4328716 181 154 116
0.112482846 -0.80896217 -0.41860783 157 130 96
0.10863046 -0.8536023 -0.40175536 129 102 76
0.10225874 -0.8820675 -0.37630126 168 183 155
0.21512309 0.023060933 -1.0356268 26 35 49
0.21222457 -0.019170953 -1.0247505 39 46 57
0.20998698 -0.062626645 -1.016947 47 54 66
0.20645916 -0.10689028 -1.0033194 32 40 50
0.20667298 -0.1545933 -1.0068978 47 55 59
0.21813765 -0.21483202 -1.062334 44 56 63
0.21328725 -0.26508996 -1.0430181 49 62 69
0.20239206 -0.3080438 -0.99580956 72 80 81
0.18368214 -0.3362747 -0.9122526 92 93 89
0.077197395 -0.19313544 -0.42010355 107 114 109
0.07162997 -0.21052964 -0.39573115 61 61 54
0.06657682 -0.22767591 -0.3736844 95 74 52
0.06327566 -0.24839805 -0.3598016 127 92 56
0.062370818 -0.2764379 -0.35721788 128 90 57
0.061427563 -0.30588037 -0.35453606 148 106 61
0.0605964 -0.33744314 -0.35247985 129 94 60
0.059825916 -0.37124336 -0.35082185 163 118 72
0.058803406 -0.40609014 -0.34807485 168 122 76
0.11907892 -0.7715143 -0.6421916 125 93 63
0.1026879 -0.75447696 -0.56670874 150 116 85
0.09272194 -0.7667443 -0.52205026 162 138 107
0.0859664 -0.79623276 -0.4929347 172 148 115
0.07971 -0.8276491 -0.4661947 156 142 116
0.07315099 -0.8548884 -0.4378501 116 82 61
0.06696219 -0.88335097 -0.41125616 113 80 60
0.06073947 -0.9094415 -0.3843784 193 166 132
0.14646941 0.034239832 -0.91499126 15 24 39
0.14450938 -0.0021272327 -0.91153365 15 21 38
0.14420974 -0.040222764 -0.91791713 22 28 38
0.14231637 -0.07985547 -0.9155338 92 59 55
0.13972558 -0.12067362 -0.9094229 78 45 45
0.12932266 -0.15520076 -0.8574019 134 121 108
0.12875955 -0.19945966 -0.8635914 113 105 97
0.122308075 -0.23721343 -0.83480173 124 120 111
0.11509517 -0.27277017 -0.8012006 120 122 117
0.107651405 -0.3064353 -0.76588064 92 88 81
0.049686622 -0.20225461 -0.41301844 93 99 94
0.047317047 -0.22655976 -0.40466174 81 67 49
0.043348532 -0.2457466 -0.38609463 121 89 57
0.04161402 -0.2731573 -0.38202116 129 93 59
0.039904602 -0.3021183 -0.37842026 150 108 65
0.038095325 -0.33223823 -0.37449574 155 113 68
0.036597766 -0.36603463 -0.37313095 146 106 66
0.109966695 -0.904577 -0.90616095 145 120 83
0.09074134 -0.8737979 -0.78992796 153 128 93
0.06936386 -0.8025131 -0.6528106 135 105 76
0.059594784 -0.8113533 -0.59894913 131 106 78
0.04565324 -0.7655366 -0.50966954 149 154 130
0.043655787 -0.84323907 -0.51478 145 114 79
0.036514524 -0.859714 -0.47753388 116 78 58
0.030287249 -0.8840382 -0.44717047 109 76 54
0.024562746 -0.913186 -0.4207003 123 93 74
0.09983835 0.011847377 -0.8806278 20 30 50
0.093875706 -0.022820778 -0.85168314 191 173 176
0.09024943 -0.057873443 -0.84057575 175 176 177
0.08692621 -0.09390591 -0.8322143 189 190 189
0.08373197 -0.13114434 -0.82538855 208 212 210
0.07938724 -0.16785431 -0.80962163 229 229 226
0.07574767 -0.20648131 -0.80007565 215 209 206
0.07110645 -0.24382402 -0.7823623 215 216 215
0.0662372 -0.28083092 -0.76276904 212 210 206
0.055496838 -0.296413 -0.68883944 86 87 85
0.025201553 -0.21899356 -0.42386773 69 74 71
0.023820266 -0.2502982 -0.4279848 66 66 63
0.021420864 -0.27847752 -0.42295384 79 70 58
0.0190436 -0.30842036 -0.41891026 90 75 57
0.03787139 -0.5143192 -0.6569552 121 97 66
0.07164252 -0.92519677 -1.1032581 119 96 73
0.056914307 -0.91966903 -0.9893722 119 93 67
0.03214107 -0.75588197 -0.7259744 121 93 72
0.01976927 -0.70355755 -0.608137 158 197 189
0.018946644 -0.8312512 -0.6612983 137 113 86
0.011116036 -0.8349561 -0.60383767 125 95 64
0.004331857 -0.84847146 -0.55884767 154 123 90
-0.0018054426 -0.8691947 -0.5220988 143 113 82
-0.0076740016 -0.88864195 -0.48678753 167 140 112
-0.013262841 -0.9086563 -0.45385385 103 98 80
-0.01859502 -0.93242675 -0.424607 99 106 95
0.06356781 0.025386654 -0.89068455 58 73 97
0.061274745 -0.00914551 -0.897725 80 87 107
0.08132505 -0.05745889 -1.1634079 195 181 165
0.07393269 -0.10249523 -1.1241723 193 179 161
0.06616415 -0.14569853 -1.079086 186 170 150
0.05341246 -0.17581308 -0.9669584 187 176 161
0.043337923 -0.20400007 -0.8824782 185 180 169
0.03740169 -0.24036591 -0.8511583 182 179 167
0.030255562 -0.26950845 -0.79978144 160 156 144
0.022594947 -0.2907691 -0.7353817 134 130 121
0.0024739394 -0.20890032 -0.43757045 105 106 98
-0.000815344 -0.22923781 -0.42039093 102 95 82
-0.0036351357 -0.2541136 -0.41261572 99 90 76
-0.0063113878 -0.2826325 -0.40982297 94 83 72
-0.009027726 -0.31403095 -0.4092796 107 92 76
0.005078439 -0.80899477 -1.0268795 122 105 84
-0.0080103 -0.6553685 -0.73937804 174 203 180
-0.014177168 -0.67844427 -0.6931046 97 50 43
-0.020080881 -0.68811244 -0.63719916 110 54 44
-0.025646515 -0.82679313 -0.7055472 136 109 83
-0.03160463 -0.84557843 -0.6575615 123 98 75
-0.03717471 -0.86083287 -0.6105455 151 117 88
-0.042440463 -0.8773128 -0.5680212 160 132 103
-0.047335777 -0.88994825 -0.5259801 186 159 125
-0.052011415 -0.90435326 -0.4880089 178 152 120
-0.05674618 -0.9269044 -0.45699754 112 103 86
0.039442763 0.0069038253 -1.1834991 200 187 168
0.03393374 -0.03820395 -1.170573 199 186 165
0.028171338 -0.08402629 -1.1541837 200 184 166
0.021255953 -0.12764192 -1.1105279 194 178 158
0.01478647 -0.17098384 -1.0750409 180 163 142
0.0032794888 -0.18057108 -0.8695733 187 183 168
-0.0040405295 -0.19648643 -0.75956875 188 187 174
-0.00979211 -0.21316397 -0.68193316 177 175 157
-0.014795056 -0.22655821 -0.61205584 126 124 108
-0.019012325 -0.24269782 -0.5633776 119 112 98
-0.023159781 -0.20922258 -0.41144335 63 68 66
-0.02605034 -0.23167941 -0.40210745 72 70 63
-0.029052816 -0.25889927 -0.40062034 75 71 63
-0.03245459 -0.29692858 -0.41409647 98 103 97
-0.036625568 -0.3497016 -0.4435771 103 94 80
-0.052004505 -0.66263413 -0.8018503 115 80 57
-0.05938167 -0.7344402 -0.80858463 124 95 72
-0.0632243 -0.7338643 -0.73200494 89 53 40
-0.07293907 -0.84308124 -0.7717833 124 98 68
-0.07712574 -0.853761 -0.71219146 125 99 71
-0.081116445 -0.86566037 -0.65901536 140 107 79
-0.08486854 -0.8774015 -0.6101855 152 118 88
-0.08867888 -0.89269453 -0.5677032 145 120 95
-0.09203626 -0.90395457 -0.5256003 187 161 131
-0.09552922 -0.9189457 -0.48870608 148 126 99
-0.09935504 -0.9395758 -0.4571741 163 141 111
-0.015439094 0.010663905 -0.54844314 40 45 56
-0.018291581 -0.010610014 -0.5402916 33 41 49
-0.021169333 -0.032271042 -0.53412855 29 36 47
-0.024106245 -0.054379836 -0.5278663 24 31 42
-0.02710225 -0.07688476 -0.5209726 22 28 35
-0.030200217 -0.10059874 -0.51844436 24 27 31
-0.03335688 -0.12443096 -0.51243055 28 27 29
-0.036856916 -0.15210503 -0.5187345 130 134 126
-0.040371545 -0.17911364 -0.5169589 116 118 109
-0.043732215 -0.20407578 -0.5062983 116 115 102
-0.043645926 -0.19420525 -0.41075656 72 74 66
-0.04628304 -0.21318613 -0.39608994 70 79 75
-0.04922773 -0.23515715 -0.3877723 84 86 79
-0.053047672 -0.26514053 -0.39236724 87 80 71
-0.057008304 -0.29603615 -0.39513662 105 93 84
-0.06978855 -0.40528363 -0.5032499 110 91 75
-0.10832235 -0.7386367 -0.8703249 119 99 80
-0.11488414 -0.7868126 -0.8436646 87 58 47
-0.12026627 -0.82483816 -0.8063313 94 69 54
-0.124570444 -0.8538633 -0.7621023 122 97 72
-0.12691785 -0.8666584 -0.7064784 130 106 87
-0.12961431 -0.88287616 -0.6583642 128 105 84
-0.1312936 -0.8909987 -0.60786855 129 104 81
-0.1333974 -0.9030585 -0.5641701 150 121 96
-0.13544099 -0.91494626 -0.5235151 152 122 93
-0.13716762 -0.9245206 -0.48429355 179 148 108
1.7161695 0.3053606 -1.633308 249 248 249
1.7342422 0.22124921 -1.618114 249 248 249
1.7224789 0.1318666 -1.573967 249 248 249
1.6687591 0.041430227 -1.4914889 249 248 248
1.6140852 -0.044713832 -1.4097576 249 248 248
1.4689687 -0.11907608 -1.2506677 221 226 238
1.2717719 -0.17225035 -1.0524318 133 150 191
0.7439525 -0.14301363 -0.5861535 249 248 248
0.57371134 -0.1438559 -0.43191043 190 178 170
0.45847604 -0.1428085 -0.32811058 123 125 128
0.34337255 -0.12928002 -0.22910929 223 207 187
0.32915422 -0.14460787 -0.21050681 215 224 226
0.32617736 -0.1639017 -0.20058164 197 198 189
0.32227325 -0.18267275 -0.19001408 211 211 204
0.32366616 -0.20442896 -0.18311675 193 185 169
0.32428646 -0.2261823 -0.1755219 192 180 161
0.32452914 -0.24808282 -0.16753045 182 161 137
0.32330644 -0.26922414 -0.1584987 177 152 125
0.32118627 -0.2898113 -0.14886327 178 148 117
0.3216706 -0.3128466 -0.14066483 184 164 138
0.32163954 -0.33581626 -0.13202503 178 156 123
0.32088152 -0.35840732 -0.122869894 146 102 86
0.32433277 -0.38594878 -0.1156647 151 114 92
0.33583578 -0.42385072 -0.111855306 182 161 125
0.34719342 -0.46361288 -0.10721705 180 159 125
0.3529682 -0.49807778 -0.09951702 166 144 111
1.7940184 0.28020734 -1.8324883 249 248 249
1.8049086 0.18547374 -1.8086913 249 248 249
1.7650386 0.08574742 -1.7332411 249 248 249
1.6894779 -0.010879643 -1.6238785 249 248 248
1.5960529 -0.09955736 -1.4998709 236 234 237
1.3924363 -0.16618186 -1.2757075 227 232 233
1.2267909 -0.21773908 -1.0943093 193 198 199
0.64441633 -0.1542899 -0.54564136 116 124 143
0.5454535 -0.16472355 -0.44468254 77 102 156
0.48740223 -0.17836714 -0.3827215 46 86 162
0.32235152 -0.14145446 -0.23411547 249 248 248
0.3176557 -0.1606553 -0.2225149 194 206 209
0.31633583 -0.18142983 -0.21365589 200 201 200
0.31630105 -0.20316248 -0.2057097 193 191 183
0.316228 -0.22522818 -0.19760473 192 183 169
0.31578526 -0.24738646 -0.18910311 192 177 163
0.31520027 -0.26975363 -0.18038574 181 158 133
0.3138153 -0.29174018 -0.17102158 180 154 126
0.31242278 -0.31392828 -0.1615766 174 154 126
0.3112395 -0.33653948 -0.15218304 168 145 116
0.3113464 -0.36078733 -0.14346029 141 99 84
0.3162749 -0.39101765 -0.13729335 169 147 117
0.32133505 -0.4225793 -0.13077095 191 172 135
0.33994967 -0.4729635 -0.1307036 141 122 93
0.346531 -0.51013684 -0.1236317 172 151 115
0.3419534 -0.5326355 -0.11094657 174 152 118
2.8242624 0.52707005 -3.1745293 203 183 186
2.8492692 0.37280777 -3.1469579 157 138 147
2.8916464 0.21448448 -3.1365168 157 131 137
2.8901956 0.048031416 -3.0763857 158 126 128
2.3635325 -0.09880965 -2.4619832 211 159 207
1.6614037 -0.16861576 -1.6872115 213 210 210
1.3383951 -0.21767221 -1.3248216 233 232 232
0.6903651 -0.15695426 -0.6537892 200 196 199
0.5542023 -0.16265336 -0.5062976 192 169 155
0.4240677 -0.15404643 -0.37028164 230 220 212
0.32297903 -0.14132757 -0.2667475 250 249 248
0.31243074 -0.15902802 -0.24924758 200 201 199
0.31035754 -0.18032072 -0.23953873 179 191 205
0.31009966 -0.20283367 -0.23134011 189 202 214
0.30998772 -0.22581123 -0.2231338 195 197 199
0.30378506 -0.24462767 -0.20988426 223 217 212
0.30582866 -0.26974052 -0.2032297 201 188 175
0.30262417 -0.29089546 -0.19236058 190 170 150
0.30191502 -0.31442735 -0.18332113 174 153 127
0.30010942 -0.33716005 -0.17339143 140 118 99
0.2986851 -0.36050215 -0.16365467 133 107 88
0.30544692 -0.39387494 -0.15913437 178 153 118
0.30905953 -0.42479 -0.15211418 169 145 112
0.33665413 -0.48930082 -0.1588945 174 146 111
0.34302172 -0.5283698 -0.15194829 172 147 108
0.34354487 -0.5602008 -0.14130475 165 141 108
3.4786181 0.5662442 -4.2212687 249 248 249
3.4946406 0.36073163 -4.170423 249 248 249
2.9963112 0.12826115 -3.5107667 221 180 163
2.239608 -0.041901115 -2.5709486 251 235 251
2.1601593 -0.1763604 -2.4328296 243 174 245
2.3165102 -0.3373902 -2.5606437 205 210 220
2.0890543 -0.44067916 -2.2605062 141 155 164
1.3105398 -0.3653608 -1.3783053 49 58 70
1.2738305 -0.44201854 -1.3095714 38 48 62
0.36940956 -0.1599114 -0.3505325 249 248 248
0.3208459 -0.16400933 -0.29252505 234 240 245
0.30958745 -0.1822572 -0.27322528 166 178 177
0.29358864 -0.19640008 -0.24978738 185 179 177
0.12979062 -0.10605195 -0.08937825 122 74 30
0.12511837 -0.11405687 -0.08122271 117 69 17
0.12345295 -0.12411429 -0.07587845 121 71 21
0.12227698 -0.13458727 -0.07096429 123 75 23
0.28819522 -0.31238165 -0.20426169 170 154 132
0.29102403 -0.34072226 -0.19797201 149 125 104
0.28043246 -0.35441384 -0.1809912 160 138 107
0.31792685 -0.42684406 -0.20020278 175 150 115
0.3266411 -0.46784258 -0.19649278 167 144 111
0.3428822 -0.52165604 -0.19722304 171 144 108
0.35473514 -0.57237804 -0.19388293 161 138 103
0.36276713 -0.61983067 -0.18719395 171 149 111
0.36272115 -0.6558324 -0.17496069 168 140 107
3.2747526 0.6519748 -4.3667293 249 248 248
3.4368262 0.46780333 -4.514112 249 248 248
3.5361407 0.25484902 -4.572105 249 248 248
3.5895607 0.024732763 -4.565984 249 248 248
2.5539331 -0.15177758 -3.1872694 176 162 158
2.3001451 -0.29276934 -2.8178487 155 170 168
2.0812545 -0.4091153 -2.5009236 185 202 203
1.2599037 -0.33846134 -1.4754838 55 67 75
1.2232168 -0.41744348 -1.4031605 44 58 68
0.9303489 -0.38831475 -1.0387917 249 248 248
0.35109395 -0.17969401 -0.3668735 211 234 246
0.32957137 -0.19606352 -0.3341199 160 183 194
0.20839341 -0.14651445 -0.19546418 204 168 157
0.1155982 -0.098754324 -0.09245443 132 74 33
0.11102958 -0.106430516 -0.08414528 125 54 21
0.10866228 -0.11551692 -0.07819022 127 70 12
0.10728428 -0.12538743 -0.073244624 125 72 9
0.106364064 -0.13573526 -0.06872914 128 76 12
0.11188896 -0.15343726 -0.07006478 144 112 79
0.15443504 -0.21742925 -0.103703015 174 146 101
0.15803161 -0.23845063 -0.10150588 179 153 110
0.38437968 -0.5724241 -0.28255203 152 129 102
0.3809699 -0.60611635 -0.26732194 139 121 92
0.40613398 -0.6854951 -0.27380833 161 138 99
0.39996505 -0.71777207 -0.25551382 159 136 101
0.38435322 -0.7328602 -0.23071755 168 145 108
3.1525202 0.54676807 -4.56755 249 248 248
3.2724912 0.34514233 -4.6742296 249 248 248
3.3624408 0.12180143 -4.7321835 249 248 248
3.2220726 -0.11061501 -4.464409 249 248 248
2.2882223 -0.24352401 -3.1143658 231 231 236
2.1209562 -0.3821874 -2.8374925 176 186 187
1.6998127 -0.43510225 -2.2308002 247 249 248
1.1464478 -0.38387313 -1.4704937 54 67 80
1.0963703 -0.45427996 -1.3787817 249 248 248
1.0839095 -0.53693575 -1.3360776 249 248 248
1.1074256 -0.6398307 -1.3376434 249 248 248
0.33987352 -0.23528376 -0.3848491 223 219 215
0.105937764 -0.09460448 -0.0997605 187 119 65
0.10064584 -0.10160714 -0.09020241 161 91 36
0.0970826 -0.109497085 -0.0827975 154 83 23
0.0949469 -0.11841764 -0.07707971 157 87 19
0.09353713 -0.12798537 -0.0721823 163 96 13
0.09273535 -0.13826066 -0.067921445 165 103 21
0.12504743 -0.1910014 -0.09713105 147 114 78
0.4017133 -0.58702433 -0.36419228 140 113 79
0.4623855 -0.71982706 -0.40872997 136 110 80
0.44701427 -0.7459046 -0.37921572 137 111 81
0.45131576 -0.8031495 -0.3677731 160 136 95
0.44392395 -0.84155273 -0.34568536 168 143 102
0.4367222 -0.87996 -0.32386285 183 162 126
0.42493916 -0.90878147 -0.29854244 181 162 127
2.8669882 0.61939543 -4.596798 249 248 248
2.962691 0.4256071 -4.6896706 249 248 248
3.0580714 0.21345936 -4.7768126 249 248 248
2.8929658 -0.015959423 -4.4559536 249 248 248
2.2131968 -0.18265764 -3.3565662 249 248 248
2.017013 -0.32574075 -3.012217 233 233 242
1.1949984 -0.2911267 -1.7500798 57 67 78
1.0870824 -0.35582379 -1.5646533 62 75 85
1.0492262 -0.43312627 -1.4840468 249 248 248
1.0305581 -0.5154709 -1.4316956 249 248 248
1.009604 -0.59533185 -1.3765147 249 248 248
0.9211397 -0.628624 -1.2301369 240 249 249
0.10299773 -0.09554427 -0.11602894 239 180 118
0.0926118 -0.09872556 -0.09905107 209 125 60
0.08816018 -0.105822705 -0.09014025 192 110 39
0.08462854 -0.11328235 -0.08254971 186 106 32
0.08266961 -0.1221058 -0.07700422 204 126 57
0.08097344 -0.13112845 -0.07180855 220 133 59
0.083443776 -0.1457055 -0.0714775 188 107 36
0.5459259 -0.83259195 -0.59140426 141 110 76
0.538539 -0.8842852 -0.5652438 147 114 78
0.50363547 -0.8896107 -0.5097159 159 121 85
0.46756396 -0.88638633 -0.45481697 152 122 79
0.43980378 -0.8921372 -0.41022167 156 134 96
0.41679627 -0.9023739 -0.3717025 180 159 123
0.3958286 -0.91279644 -0.3362869 184 163 129
0.6568632 0.12837481 -1.1493818 86 102 122
0.6542059 0.07463806 -1.1307795 77 91 112
0.65084344 0.020092446 -1.1107554 66 78 97
0.66410375 -0.03607111 -1.1188431 83 80 92
0.66690475 -0.09429459 -1.1084381 91 76 84
0.6730458 -0.1551112 -1.1030891 97 73 78
0.99519914 -0.31720805 -1.6137367 39 52 65
0.95951277 -0.39469752 -1.5322313 251 254 254
0.9507541 -0.48117298 -1.4946015 249 248 248
0.9468998 -0.57112724 -1.4644812 249 248 248
0.95022404 -0.6675669 -1.4449891 249 248 248
0.6528922 -0.5309677 -0.9702873 217 240 251
0.08990912 -0.10067464 -0.11631284 250 156 109
0.08170528 -0.104624994 -0.10119813 244 149 84
0.07679691 -0.11075537 -0.09117073 225 142 55
0.07360389 -0.11818623 -0.08374807 214 135 60
0.0732535 -0.12895794 -0.08033208 174 101 51
